0,0,0,0,0,0,0,0,0,0,0,0,0,0,0,0,0,0,0,0,0,0,0,0,0,0,0,0,0,0,0,0,0,0,0,0,0,0,0,0,0,0,0,0,0,0,0,0,0,0,0,0,0,0,0,0,0,0,0,0,0,0,0,0,0,0,0,0,0,0,0,0,0,0,0,0,0,0,0,0,0,0,0,0,0,0,0,0,0,0,0,0,0,0,0,0,0,0,0,0,0,0,0,0,0,0,0,0,0,0,0,0,0,0,0,0,0,0,0,0,0,0,0,0,0,0,0,0,0,0,0,0,0,0,0,0,0,0,0,0,0,0,0,0,0,0,0,0,0,0,0,0,0,0,0,0,0,0,0,0,0,0,0,0,0,0,0,0,0,0,0,0,0,0,0,0,0,0,0,0,0,0,0,0,0,0,0,0,0,0,0,0,0,0,0,0,0,0,0,0,0,0,0,0,0,0,0,0,0,0,0,0,0,0,0,0,0,0,0,0,0,0,0,0,0,521,521,522,522,522,522,522,522,523,523,523,524,525,526,527,527,527,528,529,529,529,529,530,530,530,530,531,532,532,533,533,534,535,535,535,536,536,536,536,536,536,537,537,538,539,539,539,540,541,542,543,543,543,543,544,545,546,547,548,549,549,550,550,550,551,551,551,552,552,553,554,554,555,555,556,556,557,557,557,557,557,557,558,558,558,558,558,558,558,559,559,559,560,560,561,561,562,562,562,562,562,562,562,563,563,563,562,563,562,562,562,562,562,561,561,0,0,0,0,0,0,0,2001,2004,2004,2004,2004,2007,2004,2004,2004,2004,2001,2001,2001,2001,2001,2001,2001,2001,2001,1997,1997,1997,1997,1997,1997,1997,1994,1994,1994,1994,1994,1994,1994,1994,1994,1991,1991,1988,1988,1985,1982,1979,1976,1976,1970,1970,1970,1968,1968,1968,1970,1976,1976,1979,1979,1979,1979,1982,1982,1982,1982,1979,1979,1979,1979,1976,1976,1970,1970,1970,1970,1970,1970,1970,1970,1970,1976,1976,1979,1979,1979,1979,1982,1982,1982,1985,1985,1982,1982,1979,1979,1976,1970,1968,1968,1962,1962,1959,1959,1959,1959,1959,1962,1968,1968,1970,1976,1976,1979,1979,1979,1979,1979,1976,1976,1976,1976,1976,1976,1976,1976,1976,1976,1979,1979,1979,1979,1979,1979,1979,1979,1979,1979,1979,1982,1982,1982,1979,1976,1970,1970,1968,1962,1959,1956,1950,1947,1947,1941,1941,1938,1938,1938,1938,1938,1941,1941,1941,1947,1947,1950,1950,1950,1947,1950,1950,1947,1947,1947,1947,1947,1947,1947,1947,1947,1947,1941,1947,1947,1950,1956,1956,1956,1956,1956,1956,1956,1950,1947,1938,1938,1930,1930,1927,1924,1921,1921,1921,1924,1927,1927,1930,1933,1933,1938,1941,1941,1938,1938,1938,1933,1933,1930,1930,1930,1930,1930,1930,1930,1930,1930,1930,1933,1933,1933,1933,1933,1933,1933,1930,1930,1930,1927,1927,1927,1924,1924,1924,1921,1921,1921,1921,1919,1916,1916,1916,1913,0,0,0,0,0,0,0,0,0,0,0,0,0,0,0,0,0,0,0,0,0,0,0,0,0,0,0,0,0,0,0,0,0,0,0,0,0,0,0,0,0,0,0,0,0,0,0,0,0,0,0,0,0,0,0,0,537,537,537,538,538,538,538,538,537,537,536,0,0,0,529,0,0,0,0,0,0,0,0,0,0,0,0,0,0,0,0,0,0,491,490,489,487,486,485,485,484,483,0,0,0,0,0,469,469,468,468,468,467,0,0,0,0,0,0,0,0,0,0,445,444,444,443,442,441,439,438,438,436,435,0,0,0,0,0,0,0,0,0,0,421,419,417,416,415,414,413,0,0,0,0,0,407,405,404,403,402,401,400,400,400,398,397,396,395,0,0,390,390,389,389,388,388,387,386,0,0,0,0,0,374,373,0,371,371,370,369,368,368,368,367,367,366,365,365,365,365,0,0,0,0,0,0,0,0,0,0,0,0,0,0,0,0,0,0,0,0,0,0,0,0,0,0,0,0,0,0,0,0,0,0,0,0,0
0,0,0,0,0,0,0,0,0,0,0,0,0,0,0,0,0,0,0,0,0,0,0,0,0,0,0,0,0,0,0,0,0,0,0,0,0,0,0,0,0,0,0,0,0,0,0,0,0,0,0,0,0,0,0,0,0,0,0,0,0,0,0,0,0,0,0,0,0,0,0,0,0,0,0,0,0,0,0,0,0,0,0,0,0,0,0,0,0,0,0,0,0,0,0,0,0,0,0,0,0,0,0,0,0,0,0,0,0,0,0,0,0,0,0,0,0,0,0,0,0,0,0,0,0,0,0,0,0,0,0,0,0,0,0,0,0,0,0,0,0,0,0,0,0,0,0,0,0,0,0,0,0,0,0,0,0,0,0,0,0,0,0,0,0,0,0,0,0,0,0,0,0,0,0,0,0,0,0,0,0,0,0,0,0,0,0,0,0,0,0,0,0,0,0,0,0,0,0,0,0,0,0,0,0,0,0,0,0,0,0,0,0,0,0,0,0,0,0,0,0,0,0,0,0,0,523,523,523,523,523,524,524,525,525,527,527,528,529,529,529,529,529,530,530,531,531,532,532,533,533,534,534,535,535,536,536,536,536,536,537,537,537,537,538,539,539,540,541,541,542,542,543,543,543,544,544,545,546,547,549,550,550,550,551,551,551,552,553,553,554,554,555,556,556,557,557,557,557,558,558,558,558,558,558,558,558,558,558,558,558,558,559,559,559,559,560,560,561,561,562,562,562,562,562,562,562,563,562,562,562,562,562,562,562,562,562,0,0,0,0,0,0,0,2001,2001,2001,2001,2001,2004,2004,2004,2004,2004,2004,2004,2004,2001,2001,2001,2001,1997,1997,1997,1997,1997,1997,1997,1997,1994,1994,1994,1994,1994,1994,1994,1991,1991,1991,1991,1991,1988,1988,1988,1985,1985,1985,1979,1979,1976,1970,1970,1970,1968,1968,1968,1968,1970,1976,1976,1976,1979,1979,1979,1982,1979,1982,1979,1979,1979,1979,1979,1979,1976,1976,1976,1970,1970,1970,1976,1976,1976,1976,1976,1976,1979,1979,1979,1979,1982,1982,1982,1982,1982,1982,1979,1979,1979,1976,1970,1968,1968,1962,1962,1959,1959,1959,1959,1959,1962,1968,1970,1976,1976,1979,1979,1982,1982,1982,1982,1982,1982,1982,1982,1982,1982,1982,1982,1982,1982,1982,1982,1982,1982,1979,1979,1979,1979,1979,1979,1979,1979,1979,1979,1976,1976,1970,1970,1962,1962,1959,1956,1950,1947,1947,1941,1941,1938,1938,1938,1938,1938,1938,1938,1941,1941,1947,1947,1947,1947,1947,1947,1947,1947,1947,1947,1947,1947,1947,1947,1947,1947,1947,1947,1947,1947,1950,1956,1956,1956,1956,1956,1956,1956,1950,1947,1941,1938,1933,1930,1930,1927,1924,1924,1924,1927,1927,1927,1930,1933,1933,1938,1938,1938,1938,1938,1938,1933,1933,1933,1933,1933,1930,1930,1930,1930,1933,1933,1933,1933,1933,1933,1933,1933,1933,1933,1930,1930,1930,1927,1927,1927,1924,1924,1924,1921,1921,1921,1919,1919,1916,1916,1913,1913,1913,0,0,0,0,0,0,0,0,0,0,0,0,0,0,0,0,0,0,0,0,0,0,0,0,0,0,0,0,0,0,0,0,0,0,0,0,0,0,0,0,0,0,0,0,0,0,0,0,0,0,0,0,0,0,0,0,538,538,538,538,538,538,538,537,537,536,535,533,530,529,524,0,0,0,0,0,0,0,0,0,0,509,508,0,0,0,0,492,491,490,489,488,486,486,485,485,484,0,0,0,0,0,469,469,468,468,467,467,466,0,0,0,0,0,0,0,0,0,446,445,444,443,442,440,439,438,437,436,436,435,434,434,433,431,430,429,427,425,424,421,0,0,0,415,414,413,413,413,412,410,408,0,405,404,403,403,402,401,400,400,399,0,0,0,0,0,0,390,389,389,388,388,387,387,386,0,0,0,0,375,374,373,372,0,371,369,368,368,368,367,367,366,365,365,365,365,0,0,0,0,0,0,0,0,0,0,0,0,0,0,0,0,0,0,0,0,0,0,0,0,0,0,0,0,0,0,0,0,0,0,0,0,0
0,0,0,0,0,0,0,0,0,0,0,0,0,0,0,0,0,0,0,0,0,0,0,0,0,0,0,0,0,0,0,0,0,0,0,0,0,0,0,0,0,0,0,0,0,0,0,0,0,0,0,0,0,0,0,0,0,0,0,0,0,0,0,0,0,0,0,0,0,0,0,0,0,0,0,0,0,0,0,0,0,0,0,0,0,0,0,0,0,0,0,0,0,0,0,0,0,0,0,0,0,0,0,0,0,0,0,0,0,0,0,0,0,0,0,0,0,0,0,0,0,0,0,0,0,0,0,0,0,0,0,0,0,0,0,0,0,0,0,0,0,0,0,0,0,0,0,0,0,0,0,0,0,0,0,0,0,0,0,0,0,0,0,0,0,0,0,0,0,0,0,0,0,0,0,0,0,0,0,0,0,0,0,0,0,0,0,0,0,0,0,0,0,0,0,0,0,0,0,0,0,0,0,0,0,0,0,0,0,0,0,0,0,0,0,0,0,0,0,0,0,0,0,0,524,0,525,525,525,526,526,527,527,528,529,529,529,530,530,530,531,531,531,532,533,533,534,535,535,535,536,536,536,536,536,537,537,537,537,538,539,539,540,541,541,542,542,543,543,543,543,543,543,544,545,546,547,549,550,550,551,551,552,552,554,555,555,555,556,557,557,557,557,558,558,558,558,558,558,558,559,559,559,559,558,558,558,558,559,558,559,559,559,559,560,560,561,561,561,562,562,563,563,563,563,562,563,562,562,562,562,562,562,562,562,0,0,0,0,0,0,1994,1997,1997,1997,1997,2001,2001,2001,2004,2004,2004,2004,2004,2004,2001,2001,2001,2001,1997,1997,1997,1997,1997,1997,1997,1994,1994,1994,1994,1994,1991,1991,1991,1988,1988,1988,1988,1988,1988,1988,1988,1985,1985,1982,1982,1982,1979,1979,1976,1970,1970,1970,1968,1968,1968,1968,1970,1976,1976,1979,1979,1979,1979,1982,1979,1979,1979,1979,1979,1979,1979,1979,1979,1976,1976,1976,1976,1976,1976,1979,1979,1979,1979,1976,1979,1979,1979,1979,1979,1982,1982,1982,1982,1982,1979,1979,1979,1976,1970,1970,1968,1968,1962,1962,1959,1959,1962,1959,1968,1968,1970,1976,1976,1979,1982,1982,1985,1985,1985,1985,1985,1985,1985,1985,1985,1985,1985,1985,1985,1985,1985,1982,1982,1982,1982,1982,1979,1976,1976,1976,1976,1976,1976,1976,1970,1970,1968,1962,1962,1959,1956,1950,1947,1947,1941,1938,1938,1938,1933,1933,1933,1933,1938,1938,1938,1941,1941,1941,1941,1947,1947,1947,1947,1950,1950,1947,1947,1947,1947,1947,1947,1947,1947,1947,1947,1950,1956,1956,1956,1956,1956,1956,1956,1950,1947,1947,1941,1938,1938,1933,1930,1930,1927,1927,1927,1927,1930,1930,1933,1933,1933,1938,1938,1933,1938,1938,1933,1933,1933,1933,1933,1933,1933,1933,1933,1933,1933,1938,1938,1933,1933,1933,1933,1933,1933,1933,1930,1930,1930,1927,1927,1927,1924,1924,1921,1921,1921,1919,1919,1916,1913,1913,1913,1910,1907,0,0,0,0,0,0,0,0,0,0,0,0,0,0,0,0,0,0,0,0,0,0,0,0,0,0,0,0,0,0,0,0,0,0,0,0,0,0,0,0,0,0,0,0,0,0,0,0,0,0,0,0,0,0,0,0,538,539,538,539,538,538,537,537,536,536,533,530,529,524,522,519,517,516,515,514,512,512,510,510,509,508,504,502,0,495,492,491,490,489,488,487,486,485,485,485,483,480,479,0,472,470,469,468,468,467,467,466,0,0,0,0,0,0,0,0,448,448,447,445,444,442,440,439,438,438,437,436,435,434,434,433,431,430,429,427,425,424,0,0,0,0,416,415,414,413,413,412,410,408,0,406,404,403,403,402,401,400,400,399,0,0,0,0,0,0,390,389,389,388,388,388,387,0,0,0,0,0,375,375,374,0,0,0,0,0,0,0,367,367,366,365,365,365,365,0,0,0,0,0,0,0,0,0,0,0,0,0,0,0,0,0,0,0,0,0,0,0,0,0,0,0,0,0,0,0,0,0,0,0,0,0
0,0,0,0,0,0,0,0,0,0,0,0,0,0,0,0,0,0,0,0,0,0,0,0,0,0,0,0,0,0,0,0,0,0,0,0,0,0,0,0,0,0,0,0,0,0,0,0,0,0,0,0,0,0,0,0,0,0,0,0,0,0,0,0,0,0,0,0,0,0,0,0,0,0,0,0,0,0,0,0,0,0,0,0,0,0,0,0,0,0,0,0,0,0,0,0,0,0,0,0,0,0,0,0,0,0,0,0,0,0,0,0,0,0,0,0,0,0,0,0,0,0,0,0,0,0,0,0,0,0,0,0,0,0,0,0,0,555,555,0,0,0,0,0,0,0,0,0,0,0,0,0,0,0,0,0,0,0,0,0,0,0,0,0,0,0,0,0,0,0,0,0,0,0,0,0,0,0,0,0,0,0,0,0,0,0,0,0,0,0,0,0,0,0,0,0,0,0,0,0,0,0,0,0,0,0,0,0,0,0,0,0,0,0,0,0,0,0,0,0,0,0,0,0,0,0,0,528,528,0,528,529,529,530,530,531,531,532,532,533,533,534,535,535,535,536,536,536,536,537,537,537,537,537,538,538,539,539,539,541,541,542,542,543,543,543,543,543,544,544,544,545,546,547,549,550,550,551,551,552,554,555,555,557,557,557,557,558,558,558,558,558,559,559,559,559,559,559,559,559,559,559,559,559,559,559,559,559,559,559,559,559,559,560,560,561,561,561,562,562,563,563,563,563,562,563,562,562,562,562,562,561,561,0,0,0,0,0,1994,1994,1994,1994,1994,1997,1997,1997,2001,2001,2001,2001,2001,2001,2001,2001,2001,2001,2001,2001,2001,1997,1997,1997,1997,1997,1994,1994,1994,1994,1994,1991,1991,1988,1988,1988,1988,1985,1985,1985,1985,1985,1985,1985,1985,1985,1982,1982,1982,1979,1979,1976,1976,1970,1970,1970,1970,1968,1970,1976,1976,1976,1979,1979,1979,1979,1982,1979,1979,1982,1979,1979,1979,1979,1979,1979,1979,1979,1979,1979,1979,1979,1979,1979,1979,1979,1976,1976,1979,1979,1979,1979,1979,1982,1982,1982,1982,1982,1982,1979,1979,1976,1976,1976,1970,1970,1968,1968,1962,1968,1968,1968,1970,1976,1976,1979,1982,1988,1988,1988,1988,1988,1988,1991,1991,1988,1988,1988,1988,1988,1988,1988,1985,1985,1985,1982,1979,1979,1979,1976,1976,1970,1970,1970,1970,1970,1970,1968,1968,1962,1962,1959,1956,1956,1956,1950,1947,1941,1941,1941,1938,1933,1933,1933,1933,1938,1938,1938,1938,1941,1941,1947,1947,1950,1950,1950,1956,1956,1950,1950,1950,1950,1950,1950,1947,1947,1947,1947,1950,1956,1956,1956,1956,1956,1956,1956,1950,1950,1947,1947,1947,1941,1941,1938,1933,1933,1933,1933,1933,1933,1933,1933,1933,1938,1938,1938,1933,1938,1938,1938,1938,1938,1938,1938,1938,1938,1938,1938,1938,1938,1938,1938,1938,1933,1933,1933,1933,1933,1933,1930,1930,1930,1930,1927,1927,1927,1924,1924,1921,1921,1919,1916,1916,1913,1913,1913,1910,1907,0,0,0,0,0,0,0,0,0,0,0,0,0,0,0,0,0,0,0,0,0,0,0,0,0,0,0,0,0,0,0,0,0,0,0,0,0,0,0,0,0,0,0,0,0,0,0,0,0,0,0,0,0,0,0,0,538,539,539,539,538,537,537,537,536,536,534,530,529,0,522,0,517,516,515,514,513,512,510,510,509,508,505,0,0,0,492,491,490,489,488,487,486,485,485,485,484,482,0,0,473,471,469,468,468,468,467,466,466,0,0,0,0,0,0,0,448,448,447,446,444,0,441,439,438,438,437,437,436,435,434,433,431,430,429,427,426,425,0,0,0,0,416,415,414,414,413,412,411,409,0,406,404,404,403,402,401,400,400,400,0,0,0,0,0,0,0,0,389,388,0,387,0,0,0,0,0,0,0,0,0,0,0,0,0,0,0,368,367,0,366,365,365,365,365,0,0,0,0,0,0,0,0,0,0,0,0,0,0,0,0,0,0,0,0,0,0,0,0,0,0,0,0,0,0,0,0,0,0,0,0,0
0,0,0,0,0,0,0,0,0,0,0,0,0,0,0,0,0,0,0,0,0,0,0,0,0,0,0,0,0,0,0,0,0,0,0,0,0,0,0,0,0,0,0,0,0,0,0,0,0,0,0,0,0,0,0,0,0,0,0,0,0,0,0,0,0,0,0,0,0,0,0,0,0,0,0,0,0,0,0,0,0,0,0,0,0,0,0,0,0,0,0,0,0,0,0,0,0,0,0,0,0,0,0,0,0,0,0,0,0,0,0,0,0,0,0,0,0,0,0,0,0,0,0,0,0,0,0,0,0,0,0,0,0,554,554,554,554,554,554,554,554,555,555,554,0,0,0,0,0,0,0,0,0,0,0,0,0,0,0,0,0,0,0,0,0,0,0,0,0,0,0,0,0,0,0,0,0,0,0,0,0,0,0,0,0,0,0,0,0,0,0,0,0,0,0,0,0,0,0,0,0,0,0,0,0,0,0,0,0,0,0,0,0,0,0,0,0,0,0,0,0,0,0,0,0,529,529,529,529,529,530,530,532,532,533,533,534,535,535,535,536,536,536,536,537,537,538,538,539,539,539,539,540,541,541,541,541,541,542,542,543,543,543,543,544,544,545,545,546,546,547,548,549,550,550,551,552,553,554,556,557,557,557,558,558,558,559,559,559,560,560,560,560,561,561,561,561,561,560,560,560,560,560,559,559,559,559,559,559,559,559,560,560,560,560,561,561,561,562,562,563,563,563,563,562,562,562,562,561,562,561,561,0,0,0,0,1994,1994,1994,1994,1994,1994,1997,1997,1997,1997,1997,2001,2001,2001,2001,2001,2001,2001,2001,2001,2001,2001,1997,1997,1997,1997,1994,1994,1994,1994,1994,1991,1991,1991,1988,1988,1985,1985,1985,1985,1985,1985,1982,1985,1985,1985,1985,1982,1982,1982,1982,1979,1979,1976,1976,1970,1970,1970,1970,1970,1970,1976,1976,1979,1979,1979,1979,1979,1982,1979,1982,1979,1979,1979,1979,1979,1979,1979,1979,1979,1979,1979,1979,1979,1979,1979,1979,1979,1976,1976,1976,1979,1979,1979,1982,1982,1982,1982,1982,1982,1982,1982,1982,1982,1979,1979,1979,1979,1979,1976,1976,1976,1976,1976,1976,1979,1979,1985,1988,1991,1991,1994,1994,1994,1994,1994,1994,1994,1991,1991,1991,1988,1988,1988,1988,1985,1982,1979,1979,1976,1976,1970,1970,1968,1968,1968,1968,1968,1968,1962,1962,1962,1962,1959,1956,1956,1950,1950,1947,1941,1941,1941,1938,1933,1933,1933,1933,1938,1938,1938,1941,1941,1947,1947,1950,1950,1956,1956,1956,1956,1956,1956,1950,1950,1950,1950,1950,1947,1947,1947,1947,1950,1950,1956,1956,1956,1956,1956,1956,1956,1956,1950,1950,1947,1947,1947,1941,1938,1938,1938,1938,1938,1938,1938,1938,1938,1938,1938,1938,1938,1938,1938,1938,1938,1938,1938,1938,1938,1938,1938,1938,1938,1938,1938,1938,1938,1938,1933,1933,1933,1933,1933,1930,1930,1930,1930,1927,1927,1924,1924,1921,1919,1919,1916,1916,1916,1913,1913,1910,1907,0,0,0,0,0,0,0,0,0,0,0,0,0,0,0,0,0,0,0,0,0,0,0,0,0,0,0,0,0,0,0,0,0,0,0,0,0,0,0,0,0,0,0,0,0,0,0,0,0,0,0,0,0,0,0,0,539,539,539,539,538,538,537,537,536,536,534,0,0,524,522,518,516,516,515,514,513,512,511,510,509,508,0,0,0,497,493,491,491,490,489,487,486,486,485,485,0,482,480,478,474,472,0,469,468,467,466,466,465,465,464,0,0,0,0,452,449,448,447,446,0,0,0,0,439,438,438,437,436,435,434,433,431,430,429,427,0,0,0,0,0,417,416,415,414,413,413,412,411,0,0,407,405,404,403,402,0,0,401,0,0,0,0,0,0,0,0,0,0,0,0,0,0,0,0,0,0,0,0,0,0,0,0,0,0,369,368,368,368,367,366,366,365,365,364,0,0,0,0,0,0,0,0,0,0,0,0,0,0,0,0,0,0,0,0,0,0,0,0,0,0,0,0,0,0,0,0,0,0,0,0,0
0,0,0,0,0,0,0,0,0,0,0,0,0,0,0,0,0,0,0,0,0,0,0,0,0,0,0,0,0,0,0,0,0,0,0,0,0,0,0,0,0,0,0,0,0,0,0,0,0,0,0,0,0,0,0,0,0,0,0,0,0,0,0,0,0,0,0,0,0,0,0,0,0,0,0,0,0,0,0,0,0,0,0,0,0,0,0,0,0,0,0,0,0,0,0,0,0,0,0,0,0,0,0,0,0,0,0,0,0,0,555,554,554,554,553,0,0,0,0,0,0,0,0,0,0,0,0,0,0,0,0,554,553,554,554,554,554,554,554,554,554,554,554,554,553,554,0,0,0,0,0,0,0,0,0,0,0,0,0,0,0,0,0,0,0,0,0,0,0,0,0,0,0,0,0,0,0,0,0,0,0,0,0,0,0,0,0,0,0,0,0,0,0,0,0,0,0,0,0,0,0,0,0,0,0,0,0,0,0,0,0,0,0,0,0,0,0,0,0,0,0,0,0,0,0,529,530,530,530,531,532,533,534,535,535,536,536,536,536,537,537,537,538,538,539,540,541,541,542,542,542,542,543,543,543,543,543,543,543,543,544,544,545,545,546,546,547,548,548,549,550,550,551,551,553,554,555,556,557,557,558,558,559,559,560,560,561,562,562,562,562,562,563,563,563,562,562,562,561,561,561,561,560,560,559,559,559,559,559,559,560,560,560,560,560,561,561,561,561,562,562,562,562,562,562,562,561,561,561,561,560,0,0,0,1994,1994,1994,1994,1994,1994,1994,1994,1994,1997,1997,1997,1997,1997,2001,2001,2001,2001,2001,2001,2001,2001,2001,2001,1997,1997,1997,1997,1994,1994,1994,1994,1994,1991,1991,1988,1988,1985,1985,1985,1985,1985,1985,1985,1985,1985,1985,1985,1985,1985,1985,1982,1982,1982,1979,1976,1976,1970,1970,1970,1970,1970,1976,1976,1976,1979,1979,1979,1979,1979,1982,1982,1982,1982,1982,1979,1979,1979,1979,1979,1979,1979,1979,1979,1979,1979,1979,1979,1979,1979,1976,1976,1976,1976,1979,1979,1979,1982,1982,1985,1985,1985,1985,1985,1985,1985,1985,1985,1985,1985,1982,1982,1982,1982,1982,1982,1982,1985,1988,1991,1994,1994,1997,1997,1997,1997,1997,1997,1994,1994,1994,1991,1991,1991,1988,1985,1985,1982,1979,1976,1976,1970,1970,1968,1962,1962,1962,1962,1962,1962,1962,1962,1959,1959,1959,1956,1956,1956,1950,1947,1947,1941,1941,1941,1938,1933,1933,1933,1938,1938,1938,1938,1941,1947,1950,1950,1956,1956,1959,1959,1959,1959,1959,1956,1956,1956,1950,1950,1947,1947,1947,1947,1947,1947,1947,1950,1950,1950,1956,1956,1956,1956,1956,1956,1956,1956,1950,1950,1947,1947,1941,1941,1938,1938,1938,1938,1938,1938,1938,1938,1938,1938,1938,1938,1938,1938,1938,1941,1941,1941,1941,1941,1941,1941,1941,1941,1941,1941,1941,1941,1941,1938,1938,1938,1938,1938,1930,1930,1930,1930,1927,1927,1924,1924,1921,1921,1916,1916,1913,1913,1913,0,0,0,0,0,0,0,0,0,0,0,0,0,0,0,0,0,0,0,0,0,0,0,0,0,0,0,0,0,0,0,0,0,0,0,0,0,0,0,0,0,0,0,0,0,0,0,0,0,0,0,0,0,0,0,539,539,539,539,539,539,538,538,537,537,537,536,534,0,0,0,522,517,516,516,515,515,514,512,511,510,509,508,505,503,499,497,494,492,491,490,489,488,486,486,485,485,0,0,0,479,475,0,0,0,468,467,466,465,465,464,464,464,0,0,0,453,449,448,448,0,0,0,0,0,439,438,438,437,436,435,434,0,431,430,429,427,426,425,423,421,420,417,416,415,414,413,413,412,412,410,409,408,406,0,404,404,0,0,0,0,0,0,0,0,0,0,0,0,0,0,0,0,0,0,0,0,0,0,0,0,0,0,0,0,0,0,0,0,368,367,0,0,0,0,0,0,0,0,0,0,0,0,0,0,0,0,0,0,0,0,0,0,0,0,0,0,0,0,0,0,0,0,0,0,0,0,0,0,0,0,0,0
0,0,0,0,0,0,0,0,0,0,0,0,0,0,0,0,0,0,0,0,0,0,0,0,0,0,0,0,0,0,0,0,0,0,0,0,0,0,0,0,0,0,0,0,0,0,0,0,0,0,0,0,0,0,0,0,0,0,0,0,0,0,0,0,0,0,0,0,0,0,0,0,0,0,0,0,0,0,0,0,0,0,0,0,0,0,0,0,0,0,0,0,0,0,0,0,0,0,0,0,0,0,0,0,0,0,0,0,0,0,0,0,554,554,553,553,553,0,0,0,0,0,0,0,0,0,0,0,0,0,0,0,0,0,554,554,554,554,554,554,554,555,0,0,0,0,0,0,0,0,0,0,0,0,0,0,0,0,0,0,0,0,0,0,0,0,0,0,0,0,0,0,0,0,0,0,0,0,0,0,0,0,0,0,0,0,0,0,0,0,0,0,0,0,0,0,0,0,0,0,0,0,0,0,0,0,0,0,0,0,0,0,0,0,0,0,0,0,0,0,0,0,0,0,530,530,531,532,532,533,534,535,536,536,536,537,537,537,538,538,539,539,541,541,542,542,543,543,543,543,543,543,544,544,544,544,544,544,544,545,545,546,546,547,548,549,549,550,550,550,551,552,553,555,556,557,557,558,558,559,559,560,560,561,562,562,563,564,564,564,564,564,564,564,564,564,563,563,562,561,561,561,561,560,559,559,559,559,559,559,559,559,559,560,560,560,561,561,561,561,562,562,562,562,562,562,561,561,0,0,0,0,1997,1997,1997,1994,1994,1994,1994,1994,1994,1994,1994,1994,1997,1997,1997,1997,1997,1997,1997,1997,2001,2001,2001,1997,1997,1997,1997,1997,1997,1997,1994,1994,1994,1994,1994,1994,1991,1991,1988,1985,1985,1985,1982,1982,1982,1982,1982,1982,1985,1985,1985,1985,1985,1985,1982,1982,1982,1979,1979,1976,1976,1970,1970,1970,1970,1976,1979,1979,1979,1979,1979,1979,1982,1982,1982,1982,1982,1982,1982,1982,1982,1982,1982,1982,1982,1982,1982,1982,1982,1982,1979,1979,1979,1976,1976,1976,1979,1979,1979,1982,1982,1985,1985,1985,1985,1985,1988,1988,1991,1991,1991,1991,1988,1988,1988,1988,1988,1988,1988,1991,1994,1994,1997,1997,1997,1997,1997,1997,1997,1997,1997,1994,1994,1994,1991,1991,1988,1985,1982,1979,1979,1970,1970,1968,1968,1962,1959,1959,1959,1959,1959,1959,1959,1959,1956,1956,1956,1956,1956,1950,1950,1947,1941,1941,1941,1941,1938,1933,1933,1933,1938,1938,1938,1941,1947,1947,1950,1956,1959,1959,1959,1962,1962,1962,1962,1959,1956,1956,1956,1950,1947,1947,1947,1947,1947,1950,1950,1950,1950,1950,1956,1956,1956,1956,1956,1956,1956,1956,1956,1956,1956,1950,1947,1947,1947,1947,1941,1941,1941,1941,1941,1941,1941,1941,1941,1941,1941,1941,1947,1947,1947,1947,1947,1947,1947,1947,1947,1947,1947,1947,1947,1947,1947,1941,1941,1941,1938,1938,1933,1933,1933,1933,1930,1930,1927,1927,1924,1924,1921,1919,1916,1916,1913,1913,0,0,0,0,0,0,0,0,0,0,0,0,0,0,0,0,0,0,0,0,0,0,0,0,0,0,0,0,0,0,0,0,0,0,0,0,0,0,0,0,0,0,0,0,0,0,0,0,0,0,0,0,0,0,0,539,539,539,539,539,539,538,537,537,537,536,534,0,0,0,522,517,516,516,515,515,514,513,511,510,509,508,0,0,499,497,494,492,491,491,490,488,486,486,485,485,484,0,0,480,0,0,0,0,468,467,466,465,465,465,464,464,0,0,0,453,450,0,448,447,0,0,0,441,439,439,438,438,437,435,0,0,0,0,429,428,426,425,423,421,419,417,416,415,414,413,413,412,412,411,0,0,0,0,0,0,0,0,0,0,0,0,0,0,0,0,0,0,0,0,0,0,0,0,0,0,0,0,0,0,0,0,0,0,0,0,0,368,368,0,0,0,0,0,0,0,0,0,0,0,0,0,0,0,0,0,0,0,0,0,0,0,0,0,0,0,0,0,0,0,0,0,0,0,0,0,0,0,0,0,0,0
0,0,0,0,0,0,0,0,0,0,0,0,0,0,0,0,0,0,0,0,0,0,0,0,0,0,0,0,0,0,0,0,0,0,0,0,0,0,0,0,0,0,0,0,0,0,0,0,0,0,0,0,0,0,0,0,0,0,0,0,0,0,0,0,0,0,0,0,0,0,0,0,0,0,0,0,0,0,0,0,0,0,0,0,0,0,0,0,0,0,0,0,0,0,0,0,0,0,0,0,0,0,0,0,0,0,0,0,0,0,0,0,553,553,553,553,552,0,0,0,0,0,0,0,0,0,0,0,0,0,0,0,0,554,554,554,554,554,554,555,555,555,0,0,0,0,0,0,0,0,0,0,0,0,0,0,0,0,0,0,0,0,0,0,0,0,0,0,0,0,0,0,0,0,0,0,0,0,0,0,0,0,0,0,0,0,0,0,0,0,0,0,0,0,0,0,0,0,0,0,0,0,0,0,0,0,0,0,0,0,0,0,0,0,0,0,0,0,0,0,0,0,0,0,531,532,533,534,535,536,536,537,537,537,538,539,539,539,540,541,541,542,543,543,543,543,544,544,544,545,545,545,546,546,546,546,546,546,547,547,548,548,549,550,550,550,551,551,552,553,554,555,556,557,558,558,558,559,559,560,560,561,562,562,563,564,564,565,565,565,565,565,565,565,565,565,564,564,563,562,561,561,560,560,559,559,559,559,559,559,559,559,559,559,559,559,0,0,0,0,0,0,0,0,0,0,0,0,0,1997,1997,1997,1994,1994,1997,1994,1994,1994,1994,1994,1994,1994,1994,1994,1994,1994,1994,1994,1997,1997,1997,1997,1997,1997,1997,1997,1997,1997,1997,1997,1997,1997,1997,1994,1994,1994,1994,1991,1991,1988,1988,1985,1985,1985,1982,1982,1985,1982,1985,1985,1985,1985,1985,1982,1985,1982,1985,1982,1982,1979,1979,1976,1976,1970,1970,1970,1970,1976,1976,1979,1979,1979,1979,1979,1982,1982,1982,1982,1982,1982,1982,1982,1985,1982,1985,1985,1985,1985,1985,1985,1985,1982,1982,1979,1979,1979,1976,1976,1979,1979,1982,1982,1985,1985,1985,1985,1988,1988,1991,1991,1991,1994,1994,1994,1994,1994,1994,1994,1994,1994,1994,1994,1994,1997,1997,1997,1997,1997,1997,1997,1997,1997,1997,1994,1994,1994,1991,1988,1985,1982,1979,1979,1976,1970,1968,1968,1962,1962,1959,1959,1959,1956,1956,1956,1956,1956,1956,1956,1956,1956,1950,1950,1947,1941,1941,1941,1941,1938,1938,1933,1933,1933,1938,1938,1938,1941,1947,1950,1956,1959,1959,1962,1962,1962,1968,1962,1962,1962,1959,1956,1956,1950,1947,1947,1947,1947,1941,1947,1947,1947,1947,1947,1950,1956,1956,1956,1956,1956,1959,1959,1959,1956,1956,1956,1950,1950,1947,1947,1947,1947,1947,1947,1947,1947,1947,1947,1947,1947,1947,1947,1947,1947,1947,1947,1947,1947,1947,1947,1947,1947,1947,1950,1950,1950,1950,1950,1947,1947,1941,1941,1938,1938,1938,1938,1933,1933,1930,1927,1927,1924,1921,1921,1919,1919,1919,1916,0,0,0,0,0,0,0,0,0,0,0,0,0,0,0,0,0,0,0,0,0,0,0,0,0,0,0,0,0,0,0,0,0,0,0,0,0,0,0,0,0,0,0,0,0,0,0,0,0,0,0,0,0,0,0,539,539,539,539,539,538,538,537,537,537,536,535,0,0,0,0,517,516,516,516,515,515,513,512,511,509,508,505,503,499,497,494,492,492,491,490,489,487,486,485,485,484,483,481,0,0,0,0,0,468,467,466,466,465,465,464,464,463,0,0,0,0,0,448,447,445,0,443,442,440,439,438,438,437,436,0,0,0,0,429,428,426,425,423,421,420,417,416,415,414,413,413,412,412,0,0,0,0,0,0,405,0,0,0,0,0,0,0,0,0,0,0,0,0,0,0,0,0,0,0,0,0,0,0,0,0,0,0,0,0,0,0,0,368,368,0,0,0,0,0,0,0,0,0,0,0,0,0,0,0,0,0,0,0,0,0,0,0,0,0,0,0,0,0,0,0,0,0,0,0,0,0,0,0,0,0,0
0,0,0,0,0,0,0,0,0,0,0,0,0,0,0,0,0,0,0,0,0,0,0,0,0,0,0,0,0,0,0,0,0,0,0,0,0,0,0,0,0,0,0,0,0,0,0,0,0,0,0,0,0,0,0,0,0,0,0,0,0,0,0,0,0,0,0,0,0,0,0,0,0,0,0,0,0,0,0,0,0,0,0,0,0,0,0,0,0,0,0,0,0,0,0,0,0,0,0,0,0,0,0,0,0,0,0,0,0,0,0,0,554,554,554,553,553,0,0,0,0,0,0,0,0,0,0,0,0,0,0,0,0,0,554,554,555,554,555,555,555,555,555,555,555,555,555,555,0,0,0,0,0,0,0,0,0,0,0,0,0,0,0,0,0,0,0,0,0,0,0,0,0,0,0,0,0,0,0,0,0,0,0,0,0,0,0,0,0,0,0,0,0,0,0,0,0,0,0,0,0,0,0,0,0,0,0,0,0,0,0,0,0,0,0,0,0,0,0,0,0,0,0,530,531,533,534,535,536,536,537,538,539,540,540,541,541,542,542,542,543,543,543,544,544,545,545,546,547,548,548,548,549,549,549,549,550,550,550,550,550,550,551,551,551,552,553,554,555,556,557,557,558,558,559,559,560,560,560,561,562,562,563,563,564,565,565,565,565,566,566,566,566,565,565,565,565,564,563,563,562,561,560,560,559,559,559,559,559,559,559,559,559,559,559,0,0,1979,1979,0,0,0,0,0,0,0,0,0,1997,1997,1997,1997,1997,1997,1994,1994,1994,1994,1994,1994,1994,1991,1991,1994,1991,1994,1994,1994,1994,1994,1994,1997,1997,1997,1997,1997,1997,1997,1997,1997,1997,1997,1997,1994,1994,1994,1994,1994,1991,1991,1988,1988,1988,1985,1985,1985,1985,1985,1985,1985,1985,1985,1985,1985,1985,1985,1985,1985,1982,1982,1979,1979,1976,1976,1976,1970,1970,1976,1976,1979,1979,1979,1979,1979,1982,1982,1982,1982,1982,1982,1985,1985,1985,1985,1985,1985,1985,1985,1985,1985,1985,1985,1982,1982,1979,1979,1979,1979,1979,1979,1982,1982,1985,1985,1985,1988,1988,1991,1991,1994,1994,1994,1997,1994,1997,1997,1997,1994,1994,1997,1994,1994,1994,1997,1997,1997,1997,1997,1997,1997,1997,1997,1994,1994,1994,1991,1988,1988,1985,1982,1979,1979,1976,1970,1968,1962,1962,1962,1959,1959,1956,1956,1956,1956,1956,1956,1956,1956,1950,1950,1950,1950,1947,1941,1941,1941,1941,1938,1938,1933,1933,1938,1938,1938,1938,1941,1947,1950,1956,1959,1962,1962,1968,1968,1970,1968,1968,1962,1959,1956,1956,1950,1947,1947,1941,1941,1941,1941,1941,1941,1941,1947,1947,1950,1956,1956,1956,1956,1956,1959,1959,1959,1956,1956,1956,1956,1950,1950,1950,1947,1947,1947,1947,1947,1947,1947,1947,1950,1950,1950,1950,1950,1950,1950,1950,1950,1947,1947,1947,1950,1950,1956,1950,1950,1950,1950,1950,1950,1947,1947,1941,1941,1941,1938,1938,1933,1933,1930,1930,1930,1927,1927,1921,1924,1921,0,0,0,0,0,0,0,0,0,0,0,0,0,0,0,0,0,0,0,0,0,0,0,0,0,0,0,0,0,0,0,0,0,0,0,0,0,0,0,0,0,0,0,0,0,0,0,0,0,0,0,0,0,0,0,540,539,539,539,539,539,538,538,538,537,537,537,536,0,0,0,0,518,516,516,516,515,515,514,513,511,510,508,504,503,499,497,495,493,492,491,491,489,487,487,486,485,484,483,482,480,0,0,0,0,468,467,466,466,465,465,464,464,463,0,0,0,0,449,448,448,445,444,443,442,440,439,439,438,437,436,0,0,0,430,429,0,426,425,423,421,420,417,416,415,414,413,413,412,412,0,0,0,0,0,0,0,406,405,404,404,0,0,0,0,0,0,0,0,0,0,0,0,0,0,0,0,0,0,0,0,0,0,0,0,0,0,0,0,0,0,0,0,0,0,0,0,0,0,0,0,0,0,0,0,0,0,0,0,0,0,0,0,0,0,0,0,0,0,0,0,0,0,0,0,0,0,0,0,0,0,0,0
0,0,0,0,0,0,0,0,0,0,0,0,0,0,0,0,0,0,0,0,0,0,0,0,0,0,0,0,0,0,0,0,0,0,0,0,0,0,0,0,0,0,0,0,0,0,0,0,0,0,0,0,0,0,0,0,0,0,0,0,0,0,0,0,0,0,0,0,0,0,0,0,0,0,0,0,0,0,0,0,0,0,0,0,0,0,0,0,0,0,0,0,0,0,0,0,0,0,0,0,0,0,0,0,0,0,0,0,0,555,554,554,554,554,553,553,553,0,0,0,0,0,0,0,0,0,0,0,0,0,0,0,553,553,554,554,554,554,555,555,555,555,555,555,555,555,555,554,554,554,554,0,0,0,0,0,0,0,0,0,0,0,0,0,0,0,0,0,0,0,0,0,0,0,0,0,0,0,0,0,0,0,0,0,0,0,0,0,0,0,0,0,0,0,0,0,0,0,0,0,0,0,0,0,0,0,0,0,0,0,0,0,0,0,0,0,0,0,0,0,0,0,0,531,532,533,535,536,536,537,538,539,541,542,542,543,543,543,543,543,543,544,545,546,546,547,549,549,550,550,550,550,550,551,551,551,551,551,551,551,552,552,553,554,554,555,556,557,558,558,559,559,560,561,561,562,561,561,562,562,562,563,564,564,565,565,566,566,566,566,566,566,566,566,566,565,565,565,564,563,562,561,560,560,559,559,559,559,559,559,559,559,0,0,0,0,1979,1979,1979,1979,0,0,0,0,0,0,1994,1997,1997,1997,1997,1997,1997,1997,1997,1997,1994,1994,1994,1994,1991,1991,1991,1988,1988,1991,1991,1991,1991,1994,1994,1994,1994,1994,1994,1994,1997,1997,1997,1997,1997,1997,1997,1994,1994,1994,1994,1994,1994,1994,1991,1991,1988,1988,1985,1985,1985,1985,1985,1985,1985,1985,1985,1985,1985,1985,1985,1985,1982,1982,1979,1979,1976,1976,1976,1970,1970,1970,1976,1976,1976,1979,1979,1979,1979,1979,1982,1982,1982,1982,1985,1985,1985,1985,1985,1985,1985,1988,1988,1985,1985,1985,1985,1982,1979,1979,1979,1979,1979,1982,1982,1982,1985,1985,1988,1988,1991,1991,1994,1994,1994,1997,1997,1997,1997,1997,1997,1997,1997,1997,1994,1994,1994,1997,1997,1997,1994,1997,1997,1994,1994,1994,1994,1991,1991,1988,1988,1985,1982,1982,1979,1976,1976,1970,1968,1968,1962,1962,1962,1959,1956,1956,1956,1956,1956,1956,1956,1950,1950,1950,1950,1947,1941,1941,1941,1941,1938,1938,1938,1933,1933,1938,1938,1938,1941,1947,1947,1950,1956,1962,1962,1968,1970,1970,1970,1970,1968,1962,1962,1956,1956,1950,1947,1947,1941,1941,1941,1938,1941,1941,1941,1941,1947,1947,1950,1950,1956,1956,1956,1956,1959,1956,1956,1956,1956,1956,1956,1956,1950,1950,1950,1950,1950,1950,1950,1950,1956,1956,1956,1956,1956,1956,1956,1956,1956,1950,1950,1950,1950,1956,1956,1956,1956,1956,1956,1956,1950,1950,1950,1950,1947,1947,1941,1941,1941,1938,1938,1938,1933,1933,1933,1930,1930,1927,1924,0,0,0,0,0,0,0,0,0,0,0,0,0,0,0,0,0,0,0,0,0,0,0,0,0,0,0,0,0,0,0,0,0,0,0,0,0,0,0,0,0,0,0,0,0,0,0,0,0,0,0,0,0,0,0,540,540,539,539,539,539,539,538,537,537,537,537,536,533,0,0,523,520,517,516,516,516,515,514,513,511,510,509,0,503,500,497,496,494,492,491,491,490,489,487,486,485,485,483,482,480,0,0,0,0,469,468,467,466,465,465,464,464,463,0,0,0,0,0,448,447,445,444,444,443,442,440,439,438,438,436,434,434,432,430,429,427,426,425,424,422,420,418,416,416,414,413,413,412,412,411,410,409,408,408,408,407,406,405,0,0,0,0,0,0,0,0,0,0,0,0,0,0,0,0,0,0,0,0,0,0,0,0,0,0,0,0,0,0,0,0,0,0,0,0,0,0,0,0,0,0,0,0,0,0,0,0,0,0,0,0,0,0,0,0,0,0,0,0,0,0,0,0,0,0,0,0,0,0,0,0,0,0
0,0,0,0,0,0,0,0,0,0,0,0,0,0,0,0,0,0,0,0,0,0,0,0,0,0,0,0,0,0,0,0,0,0,0,0,0,0,0,0,0,0,0,0,0,0,0,0,0,0,0,0,0,0,0,0,0,0,0,0,0,0,0,0,0,0,0,0,0,0,0,0,0,0,0,0,0,0,0,0,0,0,0,0,0,0,0,0,0,0,0,0,0,0,0,0,0,0,0,0,0,0,0,0,0,0,555,554,554,554,554,553,553,553,553,553,553,553,553,553,553,553,0,0,0,0,0,0,0,552,552,552,553,553,554,554,554,554,555,555,555,555,555,555,555,555,555,554,554,554,554,0,0,0,0,0,0,0,0,0,0,0,0,0,0,0,0,0,0,0,0,0,0,0,0,0,0,0,0,0,0,0,0,0,0,0,0,0,0,0,0,0,0,0,0,0,0,0,0,0,0,0,0,0,0,0,0,0,0,0,0,0,0,0,0,0,0,0,0,0,0,0,530,531,532,534,535,536,537,538,540,541,543,543,543,543,543,544,544,545,545,547,548,549,550,550,550,551,551,552,552,552,553,553,553,553,554,554,554,554,554,555,556,557,557,558,558,559,560,561,562,562,562,563,562,563,563,562,563,563,564,564,564,565,565,566,566,567,567,567,567,567,567,567,566,566,566,565,564,563,0,561,0,560,559,0,0,0,0,0,0,0,0,1988,1982,1982,1979,1979,1979,1979,1982,1982,1988,1991,1994,1994,1994,1997,1997,1997,1997,1997,1997,1997,1997,1994,1994,1994,1994,1991,1988,1988,1985,1985,1985,1985,1985,1985,1985,1988,1991,1991,1994,1994,1994,1994,1994,1997,1997,1997,1997,1997,1997,1994,1994,1994,1994,1994,1994,1994,1994,1994,1991,1991,1988,1988,1988,1985,1985,1985,1985,1985,1985,1985,1985,1985,1985,1985,1982,1979,1979,1979,1976,1970,1970,1970,1970,1970,1970,1970,1970,1976,1976,1979,1979,1979,1982,1982,1982,1985,1985,1985,1985,1985,1988,1988,1988,1988,1988,1988,1988,1985,1985,1985,1982,1982,1979,1979,1982,1982,1982,1985,1985,1985,1988,1988,1991,1991,1994,1994,1997,1997,1997,1997,1997,2001,2001,1997,1997,1997,1994,1994,1994,1994,1994,1994,1994,1994,1994,1994,1994,1994,1991,1988,1988,1988,1985,1982,1982,1979,1979,1976,1976,1970,1970,1968,1968,1968,1962,1962,1959,1959,1959,1956,1956,1956,1950,1950,1950,1950,1947,1947,1941,1941,1941,1941,1938,1938,1938,1933,1933,1938,1938,1938,1941,1947,1947,1956,1956,1962,1962,1968,1970,1970,1970,1970,1968,1962,1962,1959,1956,1950,1947,1947,1941,1941,1938,1938,1938,1938,1938,1941,1941,1947,1950,1947,1950,1956,1956,1956,1956,1956,1956,1956,1956,1956,1956,1956,1956,1956,1956,1956,1956,1956,1956,1956,1956,1959,1959,1959,1959,1959,1956,1956,1956,1956,1956,1956,1956,1956,1956,1956,1956,1956,1956,1956,1956,1956,1956,1950,1950,1947,1947,1947,1941,1941,1941,1938,1938,1938,1938,1930,1930,1933,1930,1927,0,0,0,0,0,0,0,0,0,0,0,0,0,0,0,0,0,0,0,0,0,0,0,0,0,0,0,0,0,0,0,0,0,0,0,0,0,0,0,0,0,0,0,0,0,0,0,0,0,0,0,0,0,0,0,540,539,539,539,539,538,538,537,537,537,537,536,534,0,0,0,522,519,517,516,516,516,515,0,0,0,0,0,503,501,498,496,494,492,492,491,490,489,487,486,485,485,484,482,481,479,0,0,470,469,468,467,467,466,465,464,464,463,0,0,0,0,0,0,447,446,445,444,443,442,441,439,439,438,437,435,434,432,430,429,428,427,426,425,423,421,0,416,415,414,413,412,412,412,411,410,409,409,408,407,407,0,405,0,0,0,0,0,0,0,0,0,0,0,0,0,0,0,0,0,0,0,0,0,0,0,0,0,0,0,0,0,0,0,0,0,0,0,0,0,0,0,0,0,0,0,0,0,0,0,0,0,0,0,0,0,0,0,0,0,0,0,0,0,0,0,0,0,0,0,0,0,0,0,0,0,0
0,0,0,0,0,0,0,0,0,0,0,0,0,0,0,0,0,0,0,0,0,0,0,0,0,0,0,0,0,0,0,0,0,0,0,0,0,0,0,0,0,0,0,0,0,0,0,0,0,0,0,0,0,0,0,0,0,0,0,0,0,0,0,0,0,0,0,0,0,0,0,0,0,0,0,0,0,0,0,0,0,0,0,0,0,0,0,0,0,0,0,0,0,0,0,0,0,0,0,0,0,0,0,0,0,0,555,554,554,554,554,554,554,553,554,553,553,553,553,553,553,553,0,0,0,0,0,0,0,0,552,552,553,553,554,554,554,555,555,555,556,556,555,556,555,555,555,554,555,554,554,0,0,0,0,0,0,0,0,0,0,0,0,0,0,0,0,0,0,0,0,0,0,0,0,0,0,0,0,0,0,0,0,0,0,0,0,0,0,0,0,0,0,0,0,0,0,0,0,0,0,0,0,0,0,0,0,0,0,0,0,0,0,0,0,0,0,0,0,0,0,0,0,531,532,534,536,537,538,539,541,543,543,543,544,544,545,546,547,548,549,550,550,551,551,551,552,553,553,554,555,555,556,556,556,556,556,556,556,556,557,557,558,558,559,560,561,563,564,564,564,564,564,564,564,564,564,564,564,564,564,565,565,565,566,566,567,567,568,568,568,568,568,567,567,566,566,0,0,0,0,0,0,0,0,0,0,0,0,0,0,1994,1991,1988,1982,1982,1979,1982,1982,1982,1982,1982,1988,1988,1994,1994,1994,1997,1997,1997,1997,1997,1997,1997,1997,1997,1994,1994,1994,1991,1988,1985,1982,1982,1979,1979,1979,1979,1982,1982,1985,1988,1988,1991,1991,1994,1994,1994,1997,1997,1997,1997,1997,1997,1997,1994,1997,1997,1994,1994,1994,1994,1994,1991,1988,1988,1988,1988,1988,1985,1985,1985,1985,1985,1985,1985,1985,1985,1982,1979,1979,1979,1976,1970,1970,1970,1970,1968,1968,1970,1970,1970,1976,1976,1979,1979,1982,1982,1985,1985,1985,1985,1988,1988,1991,1991,1991,1991,1991,1991,1991,1988,1988,1985,1985,1985,1982,1982,1982,1982,1982,1985,1985,1988,1988,1991,1991,1994,1994,1994,1997,1997,1997,1997,1997,1997,1997,1997,1997,1994,1994,1994,1994,1994,1994,1991,1991,1991,1991,1991,1988,1988,1988,1985,1985,1982,1982,1982,1979,1979,1979,1976,1976,1970,1970,1970,1970,1968,1968,1962,1962,1959,1959,1956,1956,1956,1950,1950,1950,1947,1947,1941,1941,1941,1941,1938,1938,1938,1938,1938,1938,1938,1938,1938,1941,1947,1950,1956,1956,1962,1962,1968,1970,1970,1970,1968,1968,1962,1962,1959,1956,1950,1947,1947,1941,1941,1938,1938,1938,1938,1938,1938,1941,1947,1947,1947,1947,1950,1950,1956,1956,1956,1956,1950,1950,1956,1956,1956,1956,1956,1956,1956,1956,1956,1959,1959,1959,1962,1962,1962,1962,1962,1962,1959,1959,1959,1956,1956,1956,1956,1959,1959,1959,1959,1959,1959,1959,1956,1956,1956,1950,1947,1947,1947,1947,1941,1941,1941,1941,1941,1938,1933,1933,1930,1933,1930,1930,0,0,0,0,0,0,0,0,0,0,0,0,0,0,0,0,0,0,0,0,0,0,0,0,0,0,0,0,0,0,0,0,0,0,0,0,0,0,0,0,0,0,0,0,0,0,0,0,0,0,0,0,0,0,0,539,539,539,538,538,538,537,537,537,536,536,535,531,0,0,0,520,518,517,516,516,515,515,0,0,510,0,504,502,498,497,494,492,492,491,491,489,488,486,485,485,484,482,481,479,476,474,472,469,468,468,467,466,465,464,463,463,0,0,456,0,0,0,0,447,446,445,444,443,442,440,439,438,437,434,434,432,430,429,428,427,426,425,424,0,0,0,0,414,413,412,412,411,411,410,409,408,408,407,407,405,404,0,0,0,0,0,0,0,0,0,0,0,0,0,0,0,0,0,0,0,0,0,0,0,0,0,0,0,0,0,0,0,0,0,0,0,0,0,0,0,0,0,0,0,0,0,0,0,0,0,0,0,0,0,0,0,0,0,0,0,0,0,0,0,0,0,0,0,0,0,0,0,0,0,0
0,0,0,0,0,0,0,0,0,0,0,0,0,0,0,0,0,0,0,0,0,0,0,0,0,0,0,0,0,0,0,0,0,0,0,0,0,0,0,0,0,0,0,0,0,0,0,0,0,0,0,0,0,0,0,0,0,0,0,0,0,0,0,0,0,0,0,0,0,0,0,0,0,0,0,0,0,0,0,0,0,0,0,0,0,0,0,0,0,0,0,0,0,0,0,0,0,0,0,0,0,0,0,0,0,0,0,554,554,554,554,554,554,553,553,553,553,553,553,553,553,0,0,0,0,0,0,0,0,0,0,0,553,553,554,555,555,555,556,556,556,556,556,555,556,555,555,554,555,554,0,0,0,0,0,0,0,0,0,0,0,0,0,0,0,0,0,0,0,0,0,0,0,0,0,0,0,0,0,0,0,0,0,0,0,0,0,0,0,0,0,0,0,0,0,0,0,0,0,0,0,0,0,0,0,0,0,0,0,0,0,0,0,0,0,0,0,0,0,0,0,0,0,531,0,535,536,537,539,541,543,543,544,545,546,547,548,549,550,550,551,551,552,553,553,554,555,556,556,557,557,557,557,557,558,558,558,557,557,558,558,558,559,560,562,563,564,565,565,565,565,565,565,565,565,564,564,564,564,564,565,565,565,0,566,567,568,568,569,568,568,0,0,0,0,0,0,2013,0,2010,2010,0,2010,0,0,0,0,0,2001,1997,1994,1994,1991,1988,1985,1982,1979,1979,1979,1979,1982,1982,1988,1988,1994,1994,1994,1997,1997,1997,1997,1997,1997,1997,1997,1994,1994,1994,1991,1988,1988,1985,1982,1979,1979,1976,1976,1976,1976,1979,1982,1985,1985,1988,1991,1991,1994,1994,1994,1994,1994,1994,1997,1997,1997,1997,1997,1997,1997,1994,1994,1994,1994,1994,1991,1991,1988,1988,1988,1988,1988,1985,1985,1985,1985,1985,1985,1985,1982,1979,1979,1979,1976,1970,1970,1970,1970,1968,1968,1968,1970,1970,1976,1976,1979,1979,1985,1985,1988,1988,1991,1991,1991,1991,1991,1994,1994,1994,1994,1991,1991,1991,1991,1988,1988,1988,1985,1985,1985,1985,1985,1985,1988,1988,1991,1991,1991,1991,1994,1994,1994,1997,1997,1994,1997,1997,1997,1997,1994,1994,1994,1991,1991,1991,1988,1988,1985,1985,1985,1982,1985,1982,1982,1979,1979,1979,1979,1979,1979,1979,1979,1979,1979,1976,1976,1976,1976,1970,1970,1968,1962,1962,1959,1959,1956,1950,1947,1947,1947,1941,1941,1941,1938,1938,1938,1933,1933,1933,1938,1938,1938,1938,1938,1941,1941,1947,1947,1950,1956,1959,1962,1962,1968,1968,1968,1962,1962,1962,1959,1956,1956,1950,1947,1947,1941,1941,1941,1938,1938,1938,1938,1941,1941,1947,1947,1947,1947,1947,1947,1947,1950,1950,1947,1947,1947,1950,1956,1956,1956,1956,1956,1956,1959,1959,1962,1962,1962,1962,1968,1968,1962,1962,1962,1962,1962,1962,1959,1959,1959,1959,1959,1962,1959,1959,1959,1959,1959,1959,1956,1956,1950,1950,1947,1947,1947,1941,1941,1941,1941,1938,1938,1933,1938,1930,1930,1930,1927,1927,0,0,0,0,0,0,0,0,0,0,0,0,0,0,0,0,0,0,0,0,0,0,0,0,0,0,0,0,0,0,0,0,0,0,0,0,0,0,0,0,0,0,0,0,0,0,0,0,0,0,0,0,0,0,0,539,539,538,538,538,537,537,537,536,536,535,531,0,0,0,521,519,517,517,516,516,515,514,512,510,509,505,0,499,497,495,493,492,491,491,489,488,486,485,484,483,482,480,0,0,474,473,470,469,468,467,466,465,464,463,462,0,458,0,0,0,0,0,448,447,0,445,444,443,441,439,438,437,434,434,432,430,429,429,428,427,0,0,0,0,0,0,0,0,0,412,411,411,410,409,409,408,408,407,0,404,404,403,402,0,0,0,0,0,0,0,0,0,0,0,0,0,0,0,0,0,0,0,0,0,0,0,0,0,0,0,0,0,0,0,0,0,0,0,0,0,0,0,0,0,0,358,0,0,0,355,355,0,353,352,0,0,0,0,0,0,0,0,0,0,0,0,0,0,0,0,0,0,0,0
0,0,0,0,0,0,0,0,0,0,0,0,0,0,0,0,0,0,0,0,0,0,0,0,0,0,0,0,0,0,0,0,0,0,0,0,0,0,0,0,0,0,0,0,0,0,0,0,0,0,0,0,0,0,0,0,0,0,0,0,0,0,0,0,0,0,0,0,0,0,0,0,0,0,0,0,0,0,0,0,0,0,0,0,0,0,0,0,0,0,0,0,0,0,0,0,0,0,0,0,0,0,0,0,0,0,0,554,555,554,554,554,554,554,554,554,553,554,553,553,553,0,0,0,0,0,0,0,0,0,0,0,0,0,0,0,0,556,557,557,557,557,557,556,556,555,555,555,554,554,0,0,0,0,0,0,0,0,0,0,0,0,0,0,0,0,0,0,0,0,0,0,0,0,0,0,0,0,0,0,0,0,0,0,0,0,0,0,0,0,0,0,0,0,0,0,0,0,0,0,0,0,0,0,0,0,0,0,0,0,0,0,0,0,0,0,0,0,0,0,0,0,0,0,534,536,537,539,541,542,543,544,546,547,549,550,550,551,551,552,553,554,555,556,556,557,557,557,558,558,558,558,558,558,558,558,559,558,559,559,559,560,561,563,564,565,565,565,566,566,566,566,565,565,565,565,565,565,564,0,0,0,0,0,0,0,0,0,0,0,0,0,0,0,0,2010,0,2010,2013,2010,2010,2010,2010,2010,2007,2007,0,2004,2001,1997,1997,1994,1994,1988,1985,1982,1982,1982,1979,1979,1982,1985,1985,1988,1994,1994,1994,1997,1997,1997,1997,1997,1997,1997,1997,1994,1994,1994,1991,1988,1985,1982,1979,1979,1976,1976,1976,1976,1970,1976,1979,1982,1982,1985,1988,1988,1991,1994,1994,1994,1994,1994,1994,1994,1997,1997,1997,1997,1997,1997,1994,1994,1994,1994,1991,1991,1991,1988,1988,1988,1988,1988,1985,1985,1985,1985,1985,1985,1982,1982,1979,1979,1976,1970,1970,1970,1970,1968,1970,1970,1970,1976,1979,1979,1982,1982,1985,1988,1991,1991,1994,1994,1994,1994,1994,1994,1994,1994,1994,1994,1994,1994,1994,1991,1988,1988,1988,1985,1985,1985,1985,1988,1988,1988,1988,1991,1991,1991,1991,1991,1994,1994,1994,1994,1994,1994,1994,1994,1994,1991,1988,1988,1988,1985,1985,1982,1982,1982,1979,1979,1979,1979,1976,1976,1976,1976,1979,1979,1979,1979,1979,1979,1979,1979,1976,1976,1976,1976,1976,1970,1968,1962,1962,1959,1956,1956,1950,1947,1947,1941,1941,1941,1938,1938,1938,1938,1938,1938,1938,1938,1938,1938,1941,1941,1947,1947,1947,1950,1956,1956,1959,1962,1962,1962,1962,1962,1962,1959,1959,1956,1956,1950,1947,1947,1947,1941,1941,1941,1941,1941,1941,1941,1941,1941,1947,1947,1947,1947,1947,1947,1947,1947,1947,1947,1947,1950,1950,1950,1956,1956,1956,1956,1959,1962,1962,1962,1968,1968,1970,1970,1968,1968,1968,1962,1962,1962,1962,1959,1959,1959,1962,1962,1962,1962,1959,1959,1959,1959,1956,1956,1950,1950,1947,1947,1947,1941,1941,1941,1938,1938,1933,1933,1933,1930,1930,1927,1927,0,0,0,0,0,0,0,0,0,0,0,0,0,0,0,0,0,0,0,0,0,0,0,0,0,0,0,0,0,0,0,0,0,0,0,0,0,0,0,0,0,0,0,0,0,0,0,0,0,0,0,0,0,0,0,539,539,539,538,538,538,537,537,537,536,536,535,532,0,0,524,522,520,518,517,517,516,516,515,513,511,509,507,0,501,497,496,493,492,491,490,489,487,486,485,484,483,482,480,479,477,474,473,0,469,469,468,466,465,464,463,461,459,458,0,0,0,0,449,448,448,447,445,444,443,442,440,439,437,434,433,431,430,429,429,428,427,426,0,0,0,0,0,0,0,412,411,411,410,410,409,409,408,408,407,406,404,404,403,402,401,0,0,0,0,0,0,0,0,0,0,0,0,0,0,0,0,0,0,0,0,0,0,0,0,0,0,0,0,0,0,0,0,0,0,0,0,0,0,0,0,358,358,358,357,356,355,355,355,354,352,352,351,0,0,0,0,0,0,0,0,0,0,0,0,0,0,0,0,0,0
0,0,0,0,0,0,0,0,0,0,0,0,0,0,0,0,0,0,0,0,0,0,0,0,0,0,0,0,0,0,0,0,0,0,0,0,0,0,0,0,0,0,0,0,0,0,0,0,0,0,0,0,0,0,0,0,0,0,0,0,0,0,0,0,0,0,0,0,0,0,0,0,0,0,0,0,0,0,0,0,0,0,0,0,0,0,0,0,0,0,0,0,0,0,0,0,0,0,0,0,0,0,0,0,0,0,0,555,555,555,554,554,554,554,554,554,554,0,0,0,0,0,0,0,0,0,0,0,0,0,0,0,0,0,0,0,0,0,0,0,0,0,0,557,556,556,555,555,554,554,0,0,0,0,0,0,0,0,0,0,0,0,0,0,0,0,0,0,0,0,0,0,0,0,0,0,0,0,0,0,0,0,0,0,0,0,0,0,0,0,0,0,0,0,0,0,0,0,0,0,0,0,0,0,0,0,0,0,0,0,0,0,0,0,0,0,0,0,0,0,0,0,0,0,0,0,0,0,543,0,545,547,549,550,550,551,552,553,554,555,556,557,557,557,558,558,558,558,558,559,559,559,559,560,560,560,560,560,560,561,561,562,563,564,565,565,566,566,566,566,566,566,566,566,565,565,0,565,0,0,0,0,0,0,0,0,0,0,0,0,0,0,0,0,2010,2010,2010,2010,2010,2010,2010,2010,2010,2010,2007,2007,2004,2004,2001,1997,1997,1994,1994,1988,1985,1982,1982,1982,1979,1979,1982,1985,1988,1988,1991,1994,1994,1997,1997,1997,1997,1997,1997,1997,1997,1994,1994,1994,1991,1988,1985,1982,1979,1976,1976,1970,1976,1970,1970,1976,1976,1979,1982,1985,1985,1988,1991,1991,1994,1994,1994,1994,1994,1994,1997,1997,1997,1997,1997,1997,1997,1994,1994,1994,1991,1991,1991,1988,1988,1988,1988,1988,1988,1985,1988,1988,1988,1985,1985,1982,1982,1982,1979,1976,1976,1976,1976,1970,1970,1976,1976,1979,1982,1985,1985,1988,1991,1994,1994,1994,1994,1994,1994,1997,1997,1994,1994,1994,1994,1994,1994,1994,1994,1991,1988,1988,1988,1985,1985,1985,1985,1988,1988,1988,1988,1988,1988,1988,1988,1991,1991,1991,1991,1991,1994,1994,1991,1991,1991,1988,1985,1985,1982,1982,1979,1976,1976,1976,1976,1976,1970,1970,1970,1976,1976,1976,1976,1979,1979,1979,1979,1979,1982,1979,1979,1979,1979,1979,1976,1970,1970,1968,1962,1962,1959,1956,1956,1950,1947,1947,1947,1941,1941,1938,1938,1938,1938,1938,1938,1941,1941,1941,1941,1941,1941,1947,1947,1947,1947,1950,1956,1956,1956,1956,1956,1956,1956,1956,1956,1956,1950,1947,1947,1947,1947,1947,1941,1941,1941,1941,1941,1941,1941,1941,1947,1941,1941,1941,1941,1941,1947,1941,1941,1941,1941,1947,1947,1950,1950,1956,1956,1956,1959,1962,1962,1962,1968,1970,1970,1970,1970,1970,1968,1968,1962,1962,1962,1962,1962,1962,1962,1962,1962,1962,1959,1959,1959,1959,1956,1956,1950,1947,1947,1941,1941,1941,1938,1938,1938,1938,1933,1933,1930,1927,1927,1927,1927,1924,0,0,0,0,0,0,0,0,0,0,0,0,0,0,0,0,0,0,0,0,0,0,0,0,0,0,0,0,0,0,0,0,0,0,0,0,0,0,0,0,0,0,0,0,0,0,0,0,0,0,0,0,0,0,0,539,538,538,538,538,537,537,537,537,536,535,533,530,529,525,523,521,520,518,517,516,516,515,514,512,510,508,0,0,0,495,492,491,491,490,489,487,486,485,484,483,481,480,479,0,0,0,472,470,469,468,0,0,0,462,460,459,458,456,454,453,451,450,449,448,448,447,445,444,443,441,439,438,0,0,0,430,429,429,428,427,426,0,0,0,0,0,0,0,0,412,411,411,410,409,409,408,408,407,405,404,404,403,402,401,400,0,0,0,0,0,0,0,0,0,0,0,0,0,0,0,0,0,0,0,0,0,0,0,0,0,0,0,0,0,0,0,0,0,0,0,0,0,0,0,358,358,357,357,356,355,355,355,354,353,352,352,351,0,0,0,0,0,0,0,0,0,0,0,0,0,0,0,0,0
0,0,0,0,0,0,0,0,0,0,0,0,0,0,0,0,0,0,0,0,0,0,0,0,0,0,0,0,0,0,0,0,0,0,0,0,0,0,0,0,0,0,0,0,0,0,0,0,0,0,0,0,0,0,0,0,0,0,0,0,0,0,0,0,0,0,0,0,0,0,0,0,0,0,0,0,0,0,0,0,0,0,0,0,0,0,0,0,0,0,0,0,0,0,0,0,0,0,0,0,0,0,0,0,0,0,0,0,0,0,0,0,0,0,0,0,0,0,0,0,0,0,0,0,0,0,0,0,0,0,0,0,0,0,0,0,0,0,0,0,0,0,0,0,0,556,556,555,555,555,0,0,0,0,0,0,0,0,0,0,0,0,0,0,0,0,0,0,0,0,0,0,0,0,0,0,0,0,0,0,0,0,0,0,0,0,0,0,0,0,0,0,0,0,0,0,0,0,0,0,0,0,0,0,0,0,0,0,0,0,0,0,0,0,0,0,0,0,0,0,0,0,0,0,0,0,0,0,0,547,549,550,551,552,553,554,556,556,557,557,558,558,558,558,559,559,559,559,560,560,561,561,561,561,561,561,562,561,562,562,563,563,564,565,565,566,566,566,567,566,567,566,566,566,566,565,0,0,0,0,0,0,0,0,0,2007,2007,2007,2007,2007,2007,2007,2007,2010,2007,2010,2010,2010,2010,2010,2010,2010,2010,2007,2007,2007,2004,2004,2001,1997,1997,1994,1994,1991,1988,1985,1982,1982,1979,1982,1982,1985,1985,1988,1991,1994,1994,1994,1997,1997,1997,1997,1997,1997,1997,1997,1994,1994,1991,1988,1985,1982,1979,1976,1976,1970,1970,1970,1970,1970,1976,1976,1979,1982,1982,1985,1988,1991,1991,1994,1994,1994,1994,1994,1994,1997,1997,1997,1997,1997,1997,1994,1994,1994,1994,1994,1991,1991,1991,1988,1988,1988,1988,1988,1988,1988,1988,1988,1988,1985,1982,1982,1982,1982,1979,1979,1979,1979,1979,1979,1982,1985,1988,1988,1991,1994,1994,1997,1997,1997,1997,1997,1997,1997,1997,1997,1997,1997,1997,1994,1994,1994,1991,1991,1991,1988,1988,1985,1985,1985,1985,1985,1985,1985,1985,1985,1985,1985,1985,1985,1988,1988,1988,1991,1991,1991,1991,1988,1988,1985,1985,1982,1979,1979,1976,1976,1970,1970,1970,1970,1970,1970,1970,1970,1970,1976,1976,1979,1979,1979,1979,1979,1979,1979,1979,1979,1979,1976,1976,1970,1970,1968,1962,1962,1959,1956,1956,1950,1950,1947,1947,1947,1941,1941,1941,1941,1941,1941,1941,1941,1941,1941,1941,1941,1941,1941,1947,1947,1947,1947,1947,1950,1956,1956,1956,1956,1956,1956,1950,1950,1950,1947,1947,1947,1947,1947,1941,1941,1941,1941,1941,1941,1941,1941,1941,1941,1941,1938,1938,1938,1941,1941,1938,1938,1941,1947,1947,1950,1950,1956,1956,1956,1959,1962,1962,1962,1968,1970,1970,1970,1970,1970,1968,1968,1968,1962,1962,1962,1962,1962,1962,1962,1962,1959,1959,1959,1959,1956,1956,1950,1947,1947,1941,1941,1941,1938,1938,1938,1933,1933,1930,1930,1927,1927,1924,1927,1924,1924,0,0,0,0,0,0,0,0,0,0,0,0,0,0,0,0,0,0,0,0,0,0,0,0,0,0,0,0,0,0,0,0,0,0,0,0,0,0,0,0,0,0,0,0,0,0,0,0,0,0,0,0,0,0,0,539,538,538,538,538,537,537,537,536,536,535,533,530,529,526,523,522,520,519,517,516,516,515,514,0,511,509,507,503,0,0,492,491,491,490,489,487,486,485,485,483,482,480,479,477,0,0,0,470,469,0,0,0,0,0,460,459,458,456,454,453,452,451,449,449,448,447,446,444,0,0,0,0,0,0,0,0,429,429,428,427,426,426,425,0,0,0,0,0,0,412,411,411,410,410,409,408,408,407,405,404,404,403,402,401,400,0,0,0,0,0,0,0,0,0,0,0,0,0,0,0,0,0,0,0,0,0,0,0,0,0,0,0,0,0,0,0,0,0,0,0,0,0,0,0,358,358,357,357,356,355,355,355,0,352,352,352,0,350,0,0,0,0,0,0,0,0,0,0,0,0,0,0,0,0
0,0,0,0,0,0,0,0,0,0,0,0,0,0,0,0,0,0,0,0,0,0,0,0,0,0,0,0,0,0,0,0,0,0,0,0,0,0,0,0,0,0,0,0,0,0,0,0,0,0,0,0,0,0,0,0,0,0,0,0,0,0,0,0,0,0,0,0,0,0,0,0,0,0,0,0,0,0,0,0,0,0,0,0,0,0,0,0,0,0,0,0,0,0,0,0,0,0,0,0,0,0,0,0,0,0,0,0,0,0,0,0,0,0,0,0,0,0,0,0,0,0,0,0,0,0,0,0,0,0,0,0,0,0,0,0,0,0,0,0,0,0,0,0,0,0,0,0,0,0,0,0,0,0,0,0,0,0,0,0,0,0,0,0,0,0,0,0,0,0,0,0,0,0,0,0,0,0,0,0,0,0,0,0,0,0,0,0,0,0,0,0,0,0,0,0,0,0,0,0,0,0,0,0,0,0,0,0,0,0,0,0,0,0,0,0,0,0,0,0,0,0,0,0,0,0,0,0,548,0,550,0,0,0,556,557,557,558,558,558,558,559,559,559,560,560,560,561,561,562,562,562,562,563,562,563,562,563,563,563,564,564,565,566,566,566,567,567,567,567,567,567,566,566,566,0,0,0,0,0,2007,2007,2007,2007,2007,2007,2007,2007,2007,2007,2007,2007,2007,2007,2007,2007,2007,2007,2007,2010,2010,2010,2007,2007,2007,2007,2004,2001,2001,1997,1997,1997,1994,1994,1988,1985,1985,1982,1982,1982,1982,1982,1985,1988,1991,1994,1994,1994,1997,1997,1997,1997,1997,1997,1997,1997,1994,1994,1991,1991,1985,1982,1979,1976,1976,1970,1970,1970,1970,1970,1976,1976,1979,1979,1982,1985,1988,1988,1991,1991,1991,1994,1994,1994,1994,1994,1994,1994,1994,1994,1997,1997,1994,1994,1994,1994,1991,1991,1991,1991,1991,1991,1991,1991,1991,1991,1991,1991,1991,1988,1988,1988,1988,1985,1985,1988,1988,1985,1985,1985,1988,1991,1994,1994,1994,1994,1997,2001,2001,2001,2001,2001,2001,2001,2001,1997,1997,1997,1997,1994,1994,1994,1991,1991,1988,1988,1985,1985,1982,1982,1982,1982,1982,1982,1985,1985,1985,1985,1985,1985,1988,1988,1988,1988,1988,1988,1985,1985,1985,1982,1982,1979,1979,1976,1976,1970,1970,1970,1970,1968,1968,1968,1968,1970,1970,1976,1976,1976,1979,1979,1979,1979,1979,1979,1979,1979,1976,1976,1976,1970,1970,1968,1962,1962,1959,1956,1956,1956,1950,1950,1950,1947,1947,1947,1941,1941,1941,1941,1941,1941,1941,1941,1941,1941,1941,1941,1941,1941,1941,1947,1947,1950,1950,1950,1950,1950,1950,1950,1950,1950,1950,1947,1947,1947,1947,1947,1941,1941,1941,1941,1941,1941,1938,1938,1941,1938,1938,1938,1938,1938,1938,1938,1938,1938,1938,1941,1947,1947,1950,1950,1956,1956,1959,1959,1962,1962,1962,1968,1968,1968,1968,1968,1968,1968,1968,1962,1962,1962,1962,1962,1962,1962,1962,1959,1959,1959,1956,1956,1950,1950,1947,1941,1941,1938,1938,1938,1933,1933,1930,1930,1930,1927,1927,1927,1924,1921,1921,1921,0,0,0,0,0,0,0,0,0,0,0,0,0,0,0,0,0,0,0,0,0,0,0,0,0,0,0,0,0,0,0,0,0,0,0,0,0,0,0,0,0,0,0,0,0,0,0,0,0,0,0,0,0,0,0,539,538,538,538,538,537,537,537,536,536,535,533,530,529,527,524,522,521,519,517,516,516,515,514,513,512,510,509,0,0,0,0,491,491,490,489,488,486,486,485,484,482,480,479,477,475,474,0,470,469,468,0,0,0,0,461,459,458,456,454,453,453,451,450,449,449,448,447,445,444,443,0,0,0,0,0,0,429,429,428,427,426,426,425,0,0,0,0,0,412,0,0,0,411,410,410,409,0,0,0,404,404,403,402,401,400,0,0,0,0,0,0,0,0,0,0,0,0,0,0,0,0,0,0,0,0,0,0,0,0,0,0,0,0,0,0,0,0,0,0,0,0,0,0,0,358,358,357,357,357,356,355,355,0,352,352,351,351,350,349,0,0,0,0,0,0,0,0,0,0,0,0,0,0,0
0,0,0,0,0,0,0,0,0,0,0,0,0,0,0,0,0,0,0,0,0,0,0,0,0,0,0,0,0,0,0,0,0,0,0,0,0,0,0,0,0,0,0,0,0,0,0,0,0,0,0,0,0,0,0,0,0,0,0,0,0,0,0,0,0,0,0,0,0,0,0,0,0,0,0,0,0,0,0,0,0,0,0,0,0,0,0,0,0,0,0,0,0,0,0,0,0,0,0,0,0,0,0,0,0,0,0,0,0,0,0,0,0,0,0,0,0,0,0,0,0,0,0,0,0,0,0,0,0,0,0,0,0,0,0,0,0,0,0,0,0,0,0,0,0,0,0,0,0,0,0,0,0,0,0,0,0,0,0,0,0,0,0,0,0,0,0,0,0,0,0,0,0,0,0,0,0,0,0,0,0,0,0,0,0,0,0,0,0,0,0,0,0,0,0,0,0,0,0,0,0,0,0,0,0,0,0,0,0,0,0,0,0,0,0,0,0,0,0,0,0,0,0,0,0,0,0,0,550,551,0,0,0,0,557,558,558,558,559,559,559,559,560,561,561,561,561,562,562,563,563,563,563,563,563,563,563,563,563,564,564,565,565,566,566,567,567,568,568,567,567,567,566,0,0,0,0,2007,2007,2007,2007,2007,2004,2007,2004,2007,2007,2007,2004,2007,2004,2007,2007,2004,2007,2007,2007,2007,2007,2007,2007,2007,2007,2007,2007,2007,2004,2001,2001,2001,1997,1997,1994,1994,1991,1988,1985,1985,1982,1982,1982,1982,1985,1988,1991,1994,1994,1994,1997,1997,1997,1997,1997,1997,1997,1997,1994,1994,1991,1991,1988,1982,1982,1979,1979,1976,1976,1976,1970,1976,1976,1976,1979,1979,1979,1982,1985,1988,1988,1991,1991,1991,1994,1994,1994,1994,1994,1994,1994,1994,1994,1994,1994,1994,1994,1994,1991,1991,1991,1991,1991,1991,1991,1991,1991,1991,1991,1994,1994,1991,1994,1994,1994,1991,1994,1994,1994,1994,1994,1994,1997,1997,1997,1997,2001,2001,2001,2004,2007,2004,2004,2001,2001,2001,2001,2001,1997,1997,1997,1994,1994,1994,1991,1988,1988,1988,1985,1982,1982,1982,1982,1982,1982,1982,1982,1982,1982,1982,1982,1985,1985,1985,1985,1985,1985,1985,1985,1982,1982,1982,1979,1979,1976,1976,1970,1970,1970,1970,1970,1968,1968,1968,1968,1970,1970,1970,1976,1976,1979,1979,1979,1979,1976,1976,1976,1976,1970,1970,1970,1970,1970,1968,1962,1962,1959,1959,1956,1956,1956,1950,1950,1950,1947,1947,1947,1941,1941,1941,1941,1941,1941,1941,1941,1941,1941,1941,1941,1941,1941,1941,1947,1947,1947,1947,1947,1947,1950,1950,1950,1947,1950,1947,1947,1947,1947,1947,1941,1941,1947,1941,1941,1941,1938,1938,1938,1938,1938,1938,1938,1938,1938,1938,1938,1938,1938,1941,1947,1947,1950,1950,1956,1956,1956,1959,1959,1962,1962,1962,1968,1968,1968,1968,1968,1968,1968,1968,1962,1962,1962,1962,1962,1962,1962,1959,1959,1959,1956,1956,1950,1947,1947,1941,1938,1938,1933,1933,1933,1930,1930,1927,1927,1924,1924,1924,1921,1919,1921,0,0,0,0,0,0,0,0,0,0,0,0,0,0,0,0,0,0,0,0,0,0,0,0,0,0,0,0,0,0,0,0,0,0,0,0,0,0,0,0,0,0,0,0,0,0,0,0,0,0,0,0,0,0,0,539,539,538,538,538,537,537,537,537,536,536,535,534,531,529,528,525,523,521,520,518,517,516,515,515,514,513,511,0,0,0,0,0,0,491,490,489,487,486,486,485,484,482,480,479,477,475,474,473,471,469,469,0,0,0,463,461,459,458,456,454,453,453,452,451,450,449,448,448,447,445,0,0,0,0,0,0,430,429,429,427,427,426,426,425,0,0,0,0,0,0,0,0,411,411,410,410,0,0,0,0,0,404,0,0,0,400,400,0,0,0,0,0,0,0,0,0,0,0,0,0,0,0,0,0,0,0,0,0,0,0,0,0,0,0,0,0,0,0,0,0,0,0,0,0,0,358,358,358,357,357,356,355,355,353,0,0,0,0,350,349,0,0,0,0,0,0,0,0,0,0,0,0,0,0,0
0,0,0,0,0,0,0,0,0,0,0,0,0,0,0,0,0,0,0,0,0,0,0,0,0,0,0,0,0,0,0,0,0,0,0,0,0,0,0,0,0,0,0,0,0,0,0,0,0,0,0,0,0,0,0,0,0,0,0,0,0,0,0,0,0,0,0,0,0,0,0,0,0,0,0,0,0,0,0,0,0,0,0,0,0,0,0,0,0,0,0,0,0,0,0,0,0,0,0,0,0,0,0,0,0,0,0,0,0,0,0,0,0,0,0,0,0,0,0,0,0,0,0,0,0,0,0,0,0,0,0,0,0,0,0,0,0,0,0,0,0,0,0,0,0,0,0,0,0,0,0,0,0,0,0,0,0,0,0,0,0,0,0,0,0,0,0,0,0,0,0,0,0,0,0,0,0,0,0,0,0,0,0,0,0,0,0,0,0,0,0,0,0,0,0,0,0,0,0,0,0,0,0,0,0,0,0,0,0,0,0,0,0,0,0,0,0,0,0,0,0,0,0,0,0,0,0,0,0,0,0,557,557,558,558,558,559,559,560,560,561,561,561,562,562,562,562,563,563,563,563,563,563,563,563,563,563,563,563,564,565,565,566,566,567,0,568,568,0,0,0,0,0,0,0,2007,2007,2007,2007,2007,2004,2007,2007,2007,2007,2004,2004,2007,2004,2007,2004,2001,2001,2007,2004,2007,2004,2007,2007,2007,2007,2007,2007,2007,2007,2004,2004,2001,2001,2001,1997,1997,1994,1994,1991,1988,1988,1985,1982,1982,1982,1982,1985,1988,1988,1991,1994,1994,1994,1997,1997,1997,1997,1997,1997,1997,1994,1994,1991,1991,1988,1985,1985,1982,1979,1979,1976,1976,1976,1976,1976,1976,1976,1979,1979,1982,1985,1985,1985,1988,1988,1991,1991,1991,1994,1994,1994,1994,1994,1994,1994,1994,1994,1994,1994,1994,1991,1994,1991,1991,1991,1991,1991,1991,1994,1994,1994,1994,1994,1994,1994,1994,1997,1997,1997,1997,2001,2001,1997,2001,2001,2004,2004,2004,2007,2007,2007,2007,2007,2007,2004,2001,2001,2001,2001,1997,1997,1997,1994,1994,1994,1991,1988,1988,1985,1985,1985,1982,1982,1982,1982,1982,1982,1982,1982,1982,1982,1982,1982,1982,1982,1985,1985,1982,1982,1982,1982,1982,1982,1979,1979,1976,1976,1970,1970,1970,1970,1970,1970,1968,1968,1968,1968,1970,1970,1970,1976,1976,1976,1976,1976,1976,1970,1970,1970,1970,1970,1970,1970,1970,1968,1962,1962,1962,1959,1959,1956,1956,1956,1956,1956,1950,1947,1947,1947,1947,1947,1947,1947,1947,1947,1947,1947,1947,1941,1941,1941,1941,1941,1941,1941,1947,1947,1947,1947,1947,1947,1947,1947,1947,1947,1947,1947,1947,1947,1941,1941,1941,1941,1941,1941,1938,1938,1938,1938,1938,1938,1933,1933,1933,1938,1938,1938,1938,1938,1941,1947,1947,1947,1950,1950,1956,1956,1956,1956,1956,1956,1959,1962,1962,1962,1962,1962,1962,1962,1962,1962,1962,1959,1959,1959,1959,1959,1959,1959,1956,1956,1956,1950,1947,1947,1941,1938,1933,1933,1933,1930,1930,1927,1924,1924,1924,1921,1919,1919,1919,1916,0,0,0,0,0,0,0,0,0,0,0,0,0,0,0,0,0,0,0,0,0,0,0,0,0,0,0,0,0,0,0,0,0,0,0,0,0,0,0,0,0,0,0,0,0,0,0,0,0,0,0,0,0,0,0,0,539,538,538,538,537,537,537,537,536,536,535,534,532,530,529,526,523,522,520,518,517,516,516,515,514,514,0,0,0,0,0,0,0,491,490,489,488,486,486,485,484,483,481,479,477,475,474,472,471,469,469,468,466,464,463,461,459,458,456,455,453,453,452,452,451,450,449,448,448,447,445,444,0,0,0,431,430,429,428,427,427,426,425,425,425,0,0,0,0,412,0,412,412,411,410,0,0,0,0,0,0,404,0,0,0,0,0,0,0,0,0,0,0,0,0,0,0,0,0,0,0,0,0,0,0,0,0,0,0,0,0,0,0,0,0,0,0,0,0,0,0,0,0,359,0,0,0,0,357,357,356,355,355,354,352,352,0,350,350,349,0,0,0,0,0,0,0,0,0,0,0,0,0,0,0
0,0,0,0,0,0,0,0,0,0,0,0,0,0,0,0,0,0,0,0,0,0,0,0,0,0,0,0,0,0,0,0,0,0,0,0,0,0,0,0,0,0,0,0,0,0,0,0,0,0,0,0,0,0,0,0,0,0,0,0,0,0,0,0,0,0,0,0,0,0,0,0,0,0,0,0,0,0,0,0,0,0,0,0,0,0,0,0,0,0,0,0,0,0,0,0,0,0,0,0,0,0,0,0,0,0,0,0,0,0,0,0,0,0,0,0,0,0,0,0,0,0,0,0,0,0,0,0,0,0,0,0,0,0,0,0,0,0,0,0,0,0,0,0,0,0,0,0,0,0,0,0,0,0,0,0,0,0,0,0,0,0,0,0,0,0,0,0,0,0,0,0,0,0,0,0,0,0,0,0,0,0,0,0,0,0,0,0,0,0,0,0,0,0,0,0,0,0,0,0,0,0,0,0,0,0,0,0,0,0,0,0,0,0,0,0,0,0,0,0,0,0,0,0,0,0,0,0,0,0,0,558,558,558,559,560,560,561,561,562,0,0,0,0,0,563,563,563,564,564,564,564,564,564,564,564,0,563,563,564,564,0,0,0,0,0,0,0,0,0,0,2007,2007,2007,2007,2007,2007,2007,2007,2007,2007,2007,2007,2001,2004,2004,2004,2001,2004,2004,2001,2001,2001,2001,2001,2001,2001,2001,2004,2007,2007,2007,2004,2004,2007,2004,2004,2001,2001,2001,1997,1997,1997,1994,1994,1991,1988,1985,1985,1982,1982,1982,1985,1985,1991,1991,1994,1994,1994,1994,1997,1997,1997,1997,1997,1997,1994,1994,1994,1991,1991,1988,1985,1985,1985,1982,1982,1982,1979,1979,1979,1979,1979,1979,1979,1982,1982,1985,1985,1988,1988,1988,1991,1991,1991,1994,1994,1994,1994,1994,1994,1994,1994,1994,1994,1991,1991,1991,1991,1991,1991,1991,1994,1994,1994,1994,1994,1997,1997,1997,1997,2001,2001,2001,2004,2004,2007,2007,2007,2007,2010,2010,2010,2010,2010,2010,2010,2010,2010,2007,2007,2004,2001,2001,2001,1997,1994,1994,1994,1994,1991,1988,1988,1985,1985,1985,1982,1982,1982,1982,1982,1982,1982,1982,1982,1982,1982,1982,1982,1982,1982,1982,1982,1982,1982,1982,1982,1979,1979,1976,1976,1976,1970,1970,1970,1970,1970,1970,1970,1968,1968,1968,1968,1970,1970,1970,1970,1970,1970,1970,1970,1970,1970,1970,1968,1968,1968,1968,1968,1968,1962,1962,1962,1962,1962,1959,1959,1959,1956,1956,1956,1956,1950,1947,1947,1947,1947,1947,1947,1947,1947,1947,1947,1947,1941,1941,1941,1941,1941,1941,1941,1941,1947,1947,1947,1947,1947,1947,1947,1947,1947,1941,1941,1941,1941,1941,1941,1941,1941,1941,1938,1938,1938,1938,1933,1933,1933,1930,1930,1930,1933,1933,1933,1933,1938,1938,1941,1947,1947,1947,1947,1947,1950,1956,1956,1956,1956,1956,1956,1959,1959,1959,1962,1962,1962,1962,1959,1959,1959,1959,1959,1959,1959,1959,1959,1956,1956,1956,1950,1947,1947,1941,1938,1933,1933,1930,1930,1927,1927,1924,1921,1921,1921,1919,1916,1916,1916,1916,0,0,0,0,0,0,0,0,0,0,0,0,0,0,0,0,0,0,0,0,0,0,0,0,0,0,0,0,0,0,0,0,0,0,0,0,0,0,0,0,0,0,0,0,0,0,0,0,0,0,0,0,0,0,0,538,538,538,537,537,537,537,537,536,536,536,534,532,530,529,527,525,523,521,519,517,516,516,515,514,514,512,0,0,0,0,0,0,491,491,489,488,487,486,485,485,483,481,479,477,475,474,473,471,469,469,468,467,465,463,462,460,458,457,455,454,453,453,452,451,450,449,448,448,447,0,0,0,0,0,0,430,429,428,427,426,426,425,425,425,0,0,0,0,0,412,0,412,412,411,410,409,0,0,0,406,405,0,0,0,0,0,0,0,0,0,0,0,0,0,0,0,0,0,0,0,0,0,0,0,0,0,0,0,0,0,0,0,0,0,0,0,0,0,0,0,0,0,0,0,0,0,0,358,357,0,0,0,0,352,352,351,350,349,349,0,0,0,0,0,0,0,0,0,0,0,0,0,0,0
0,0,0,0,0,0,0,0,0,0,0,0,0,0,0,0,0,0,0,0,0,0,0,0,0,0,0,0,0,0,0,0,0,0,0,0,0,0,0,0,0,0,0,0,0,0,0,0,0,0,0,0,0,0,0,0,0,0,0,0,0,0,0,0,0,0,0,0,0,0,0,0,0,0,0,0,0,0,0,0,0,0,0,0,0,0,0,0,0,0,0,0,0,0,0,0,0,0,0,0,0,0,0,0,0,0,0,0,0,0,0,0,0,0,0,0,0,0,0,0,0,0,0,0,0,0,0,0,0,0,0,0,0,0,0,0,0,0,0,0,0,0,0,0,0,0,0,0,0,0,0,0,0,0,0,0,0,0,0,0,0,0,0,0,0,0,0,0,0,0,0,0,0,0,0,0,0,0,0,0,0,0,0,0,0,0,0,0,0,0,0,0,0,0,0,0,0,0,0,0,0,0,0,0,0,0,0,0,0,0,0,0,0,0,0,0,0,0,0,0,0,0,0,0,0,0,0,0,0,0,0,0,0,560,560,561,0,0,0,0,0,0,0,0,0,0,564,564,564,564,0,0,0,0,0,0,0,0,0,0,0,0,2013,2013,0,2013,0,0,2010,0,2007,2007,2007,2007,2007,2007,2007,2004,2004,2004,2007,2007,2001,2001,2001,2001,2001,2001,2001,2001,2001,2001,2001,2001,2001,2001,2001,2001,2001,2004,2004,2004,2004,2004,2004,2004,2001,2001,2001,2001,2001,1997,1997,1997,1994,1994,1991,1991,1988,1988,1985,1985,1988,1988,1991,1991,1994,1994,1994,1997,1997,1997,1997,1997,1997,1997,1994,1994,1994,1994,1994,1991,1991,1988,1988,1985,1985,1982,1982,1982,1982,1982,1979,1979,1979,1979,1982,1982,1982,1985,1985,1988,1988,1988,1991,1991,1991,1994,1994,1994,1994,1994,1994,1994,1994,1991,1991,1991,1991,1991,1991,1994,1994,1994,1994,1997,1997,1997,2001,2001,2004,2004,2007,2007,2007,2010,2010,2010,2010,2010,2013,2013,2010,2010,2010,2010,2010,2010,2010,2007,2004,2001,2001,2001,1997,1997,1994,1994,1994,1991,1988,1988,1985,1985,1985,1982,1982,1982,1982,1982,1982,1982,1982,1982,1982,1982,1982,1982,1982,1982,1982,1982,1982,1982,1982,1979,1979,1979,1976,1976,1970,1970,1970,1970,1970,1970,1970,1970,1968,1968,1968,1968,1968,1970,1970,1970,1970,1970,1970,1970,1970,1970,1968,1968,1962,1962,1962,1962,1962,1962,1962,1962,1962,1962,1962,1962,1962,1959,1959,1956,1956,1956,1956,1950,1947,1947,1947,1947,1947,1947,1947,1947,1947,1947,1947,1941,1941,1941,1941,1941,1941,1941,1947,1941,1941,1941,1941,1941,1941,1941,1941,1938,1938,1938,1938,1938,1938,1938,1938,1938,1938,1938,1933,1933,1933,1930,1930,1930,1930,1930,1930,1930,1930,1933,1933,1938,1938,1941,1941,1941,1947,1947,1947,1947,1947,1947,1947,1950,1950,1956,1956,1956,1956,1956,1956,1956,1956,1956,1956,1956,1956,1956,1956,1956,1956,1956,1956,1956,1950,1947,1947,1941,1938,1938,1933,1933,1930,1927,1927,1924,1921,1921,1919,1916,1916,1916,1916,1913,1913,1913,0,0,0,0,0,0,0,0,0,0,0,0,0,0,0,0,0,0,0,0,0,0,0,0,0,0,0,0,0,0,0,0,0,0,0,0,0,0,0,0,0,0,0,0,0,0,0,0,0,0,0,0,0,0,0,0,538,537,537,537,537,537,536,536,535,533,531,529,0,526,523,522,520,518,516,516,515,515,514,512,511,509,0,501,0,0,491,491,489,488,487,486,486,485,483,0,0,477,0,0,0,472,470,469,468,467,466,464,463,461,459,457,455,454,453,453,453,451,0,0,0,0,0,0,0,0,438,0,0,430,0,0,0,0,0,425,425,0,0,0,0,0,0,413,412,412,412,411,411,410,409,408,408,407,406,404,404,0,0,0,0,0,0,0,0,0,0,0,0,0,0,0,0,0,0,0,0,0,0,0,0,0,0,0,0,0,0,0,0,0,0,0,0,0,0,0,0,0,0,0,358,358,0,0,0,0,0,0,351,351,350,349,349,349,349,0,0,346,0,0,0,0,0,0,0,0,0,0
0,0,0,0,0,0,0,0,0,0,0,0,0,0,0,0,0,0,0,0,0,0,0,0,0,0,0,0,0,0,0,0,0,0,0,0,0,0,0,0,0,0,0,0,0,0,0,0,0,0,0,0,0,0,0,0,0,0,0,0,0,0,0,0,0,0,0,0,0,0,0,0,0,0,0,0,0,0,0,0,0,0,0,0,0,0,0,0,0,0,0,0,0,0,0,0,0,0,0,0,0,0,0,0,0,0,0,0,0,0,0,0,0,0,0,0,0,0,0,0,0,0,0,0,0,0,0,0,0,0,0,0,0,0,0,0,0,0,0,0,0,0,0,0,0,0,0,0,0,0,0,0,0,0,0,0,0,0,0,0,0,0,0,0,0,0,0,0,0,0,0,0,0,0,0,0,0,0,0,0,0,0,0,0,0,0,0,0,0,0,0,0,0,0,0,0,0,0,0,0,0,0,0,0,0,0,0,0,0,0,0,0,0,0,0,0,0,0,0,0,0,0,0,0,0,0,0,0,0,0,0,0,0,0,0,0,0,0,0,0,0,0,0,0,0,0,0,0,0,0,0,0,0,0,0,0,0,0,0,2010,2010,2010,2013,2010,2010,2010,2010,2010,2010,2007,2007,2007,2007,2007,2007,2007,2007,2004,2004,2004,2004,2001,2001,2001,2001,2001,2001,2001,2001,2001,2001,2001,2001,1997,1997,1997,1997,2001,2001,2001,2001,2001,2001,2004,2004,2004,2001,2001,2001,2001,2001,2001,1997,1997,1997,1994,1994,1994,1991,1991,1988,1988,1991,1991,1991,1994,1994,1994,1994,1997,1997,1997,1997,1997,1997,1997,1994,1994,1994,1994,1994,1994,1991,1991,1991,1988,1985,1985,1985,1982,1982,1982,1982,1979,1979,1979,1982,1982,1982,1982,1985,1985,1988,1988,1991,1991,1991,1991,1991,1991,1994,1994,1994,1994,1991,1991,1991,1991,1991,1994,1994,1994,1994,1994,1997,1997,2001,2001,2001,2004,2007,2007,2007,2010,2010,2010,2010,2010,2010,2010,2016,2013,2013,2010,2010,2010,2010,2010,2007,2004,2001,1997,1997,1994,1994,1994,1991,1988,1988,1988,1985,1985,1982,1982,1982,1982,1982,1982,1982,1982,1982,1982,1982,1982,1982,1982,1982,1982,1982,1982,1982,1982,1982,1982,1979,1979,1979,1979,1976,1970,1970,1970,1970,1970,1970,1970,1970,1970,1970,1970,1968,1970,1970,1970,1970,1970,1970,1970,1970,1970,1968,1968,1962,1962,1962,1962,1962,1962,1962,1962,1962,1959,1959,1962,1959,1962,1962,1962,1962,1959,1959,1956,1956,1950,1947,1947,1947,1947,1947,1947,1947,1947,1947,1947,1947,1941,1941,1941,1941,1941,1941,1947,1947,1941,1941,1941,1941,1941,1941,1941,1941,1938,1938,1938,1938,1938,1938,1938,1938,1938,1938,1933,1933,1933,1930,1930,1930,1930,1930,1930,1930,1930,1930,1930,1933,1933,1938,1938,1938,1938,1938,1941,1941,1941,1941,1941,1941,1947,1947,1947,1947,1950,1950,1950,1956,1956,1956,1950,1950,1956,1956,1956,1956,1956,1956,1956,1956,1956,1950,1947,1947,1947,1941,1938,1938,1933,1933,1930,1927,1924,1924,1921,1921,1916,1916,1916,1913,1913,1913,1913,1910,0,0,0,0,0,0,0,0,0,0,0,0,0,0,0,0,0,0,0,0,0,0,0,0,0,0,0,0,0,0,0,0,0,0,0,0,0,0,0,0,0,0,0,0,0,0,0,0,0,0,0,0,0,0,0,0,537,537,537,537,536,536,536,535,533,531,530,529,527,524,522,521,519,517,516,516,515,515,512,511,510,0,502,497,0,491,491,490,488,487,486,486,0,0,0,0,477,475,474,473,471,470,469,468,468,466,464,463,461,0,458,456,454,454,453,453,0,0,0,0,0,0,0,0,0,438,435,0,432,0,0,0,0,0,0,0,0,0,0,0,0,414,0,412,0,0,411,411,410,409,408,408,408,0,0,0,0,0,0,0,0,0,398,0,0,0,0,0,0,0,0,0,0,0,0,0,0,0,0,0,0,0,0,0,0,0,0,0,0,0,0,0,0,0,0,0,0,0,0,0,0,0,0,0,0,0,0,0,0,350,349,349,349,348,348,0,346,0,0,0,0,0,0,0,0,0,0
0,0,0,0,0,0,0,0,0,0,0,0,0,0,0,0,0,0,0,0,0,0,0,0,0,0,0,0,0,0,0,0,0,0,0,0,0,0,0,0,0,0,0,0,0,0,0,0,0,0,0,0,0,0,0,0,0,0,0,0,0,0,0,0,0,0,0,0,0,0,0,0,0,0,0,0,0,0,0,0,0,0,0,0,0,0,0,0,0,0,0,0,0,0,0,0,0,0,0,0,0,0,0,0,0,0,0,0,0,0,0,0,0,0,0,0,0,0,0,0,0,0,0,0,0,0,0,0,0,0,0,0,0,0,0,0,0,0,0,0,0,0,0,0,0,0,0,0,0,0,0,0,0,0,0,0,0,0,0,0,0,0,0,0,0,0,0,0,0,0,0,0,0,0,0,0,0,0,0,0,0,0,0,0,0,0,0,0,0,0,0,0,0,0,0,0,0,0,0,0,0,0,0,0,0,0,0,0,0,0,0,0,0,0,0,0,0,0,0,0,0,0,0,0,0,0,0,0,0,0,0,0,0,0,0,0,0,0,0,0,0,0,0,0,0,0,0,0,0,0,0,0,0,0,2007,2007,2007,0,2010,2010,2010,2010,2010,2010,2010,2010,2010,2010,2010,2007,2007,2007,2007,2007,2007,2007,2007,2004,2004,2004,2001,2001,2001,2001,2001,2001,2001,2001,2001,2001,1997,1997,1997,1997,1997,1997,1997,1997,1997,2001,2001,2001,2001,2001,2001,2001,2004,2004,2001,2001,2001,2001,2001,1997,1997,1997,1997,1994,1994,1994,1991,1991,1991,1991,1991,1994,1994,1994,1994,1994,1997,1997,1997,1997,1997,1997,1994,1994,1994,1994,1994,1994,1994,1991,1991,1988,1988,1985,1985,1982,1982,1982,1979,1979,1979,1979,1979,1979,1982,1982,1985,1985,1988,1988,1988,1991,1991,1991,1991,1991,1991,1991,1991,1991,1991,1991,1991,1991,1991,1994,1994,1994,1994,1994,1997,1997,2001,2001,2004,2007,2007,2007,2010,2010,2010,2013,2013,2013,2010,2010,2013,2013,2010,2010,2010,2007,2007,2007,2004,1997,1997,1994,1994,1991,1991,1988,1985,1982,1985,1985,1982,1982,1982,1982,1982,1982,1982,1982,1982,1982,1982,1982,1982,1982,1982,1982,1982,1982,1982,1982,1982,1979,1979,1979,1979,1979,1979,1976,1976,1970,1970,1970,1970,1970,1970,1970,1970,1970,1968,1968,1968,1970,1970,1970,1970,1970,1970,1970,1970,1968,1968,1962,1962,1962,1959,1959,1959,1959,1959,1959,1959,1959,1959,1959,1959,1962,1962,1962,1962,1959,1959,1959,1956,1956,1950,1947,1947,1947,1947,1947,1947,1947,1947,1947,1941,1941,1941,1941,1941,1941,1941,1941,1947,1941,1941,1941,1941,1941,1938,1938,1938,1938,1938,1938,1938,1938,1938,1938,1938,1933,1933,1933,1930,1933,1933,1930,1930,1930,1930,1930,1930,1930,1930,1930,1930,1933,1933,1938,1938,1938,1938,1938,1938,1938,1938,1938,1938,1938,1938,1941,1947,1947,1947,1947,1947,1947,1947,1947,1947,1950,1950,1950,1956,1956,1956,1956,1956,1956,1950,1950,1947,1947,1941,1941,1938,1938,1933,1933,1930,1927,1924,1924,1921,1919,1919,1916,1913,1913,1913,1913,1910,1910,0,0,0,0,0,0,0,0,0,0,0,0,0,0,0,0,0,0,0,0,0,0,0,0,0,0,0,0,0,0,0,0,0,0,0,0,0,0,0,0,0,0,0,0,0,0,0,0,0,0,0,0,0,0,0,0,537,537,537,537,536,536,535,534,532,530,529,528,524,523,0,519,517,516,516,515,515,513,511,510,0,503,0,496,492,491,490,489,488,487,486,0,0,0,480,478,0,474,473,472,470,469,469,468,467,465,0,0,0,0,457,455,454,454,453,0,0,0,0,0,0,0,443,441,439,437,0,0,0,0,0,0,0,427,426,0,0,0,0,0,415,414,0,0,412,411,411,409,409,408,408,0,406,0,0,0,0,0,0,398,0,397,0,0,0,0,0,0,0,0,0,0,0,0,0,0,0,0,0,0,0,0,0,0,0,0,0,0,0,0,0,367,0,0,0,0,0,0,359,358,0,0,0,0,353,0,0,351,350,349,349,349,349,348,0,0,0,0,0,0,0,0,0,0,0,0
0,0,0,0,0,0,0,0,0,0,0,0,0,0,0,0,0,0,0,0,0,0,0,0,0,0,0,0,0,0,0,0,0,0,0,0,0,0,0,0,0,0,0,0,0,0,0,0,0,0,0,0,0,0,0,0,0,0,0,0,0,0,0,0,0,0,0,0,0,0,0,0,0,0,0,0,0,0,0,0,0,0,0,0,0,0,0,0,0,0,0,0,0,0,0,0,0,0,0,0,0,0,0,0,0,0,0,0,0,0,0,0,0,0,0,0,0,0,0,0,0,0,0,0,0,0,0,0,0,0,0,0,0,0,0,0,0,0,0,0,0,0,0,0,0,0,0,0,0,0,0,0,0,0,0,0,0,0,0,0,0,0,0,0,0,0,0,0,0,0,0,0,0,0,0,0,0,0,0,0,0,0,0,0,0,0,0,0,0,0,0,0,0,0,0,0,0,0,0,0,0,0,0,0,0,0,0,0,0,0,0,0,0,0,0,0,0,0,0,0,0,0,0,0,0,0,0,0,0,0,2010,2010,2010,0,0,0,0,0,0,0,0,0,0,0,0,0,0,2001,0,0,0,0,0,2007,2007,2007,2007,2007,2007,2010,2010,2010,2010,2010,2010,2010,2010,2010,2007,2007,2007,2007,2007,2007,2007,2007,2004,2004,2001,2001,2001,2001,2001,2001,2001,2001,2001,2001,2001,1997,1997,1997,1997,1997,1997,1997,1997,1997,1997,2001,2001,2001,2001,2001,2001,2001,2004,2004,2001,2001,2001,2001,2001,2001,2001,1997,1997,1997,1994,1994,1994,1994,1994,1994,1991,1994,1994,1994,1994,1994,1994,1994,1994,1997,1997,1994,1994,1994,1994,1994,1994,1994,1994,1994,1991,1988,1988,1985,1985,1982,1982,1979,1979,1979,1979,1979,1979,1979,1982,1982,1982,1985,1985,1988,1988,1991,1991,1991,1991,1991,1991,1991,1994,1991,1991,1991,1991,1991,1991,1991,1994,1994,1994,1994,1997,1997,2001,2001,2004,2007,2007,2010,2010,2010,2010,2010,2010,2010,2010,2010,2010,2010,2007,2007,2007,2004,2004,2001,1997,1994,1994,1991,1991,1988,1985,1982,1982,1982,1982,1982,1982,1982,1982,1982,1982,1982,1982,1982,1982,1982,1982,1982,1982,1982,1982,1982,1982,1982,1982,1979,1979,1979,1979,1979,1979,1979,1976,1976,1970,1970,1970,1970,1970,1970,1970,1970,1970,1970,1968,1968,1968,1970,1970,1970,1970,1970,1970,1970,1970,1968,1962,1962,1962,1959,1956,1956,1956,1956,1956,1956,1956,1956,1956,1956,1956,1959,1959,1962,1962,1959,1959,1959,1956,1956,1950,1947,1947,1947,1947,1941,1941,1941,1941,1941,1941,1941,1941,1938,1938,1938,1938,1938,1938,1938,1938,1938,1938,1938,1938,1938,1938,1933,1933,1933,1933,1933,1933,1933,1933,1933,1930,1930,1930,1933,1930,1930,1930,1930,1930,1930,1930,1930,1930,1930,1930,1930,1933,1933,1933,1933,1933,1933,1933,1938,1933,1933,1933,1938,1938,1938,1938,1941,1941,1941,1941,1941,1947,1947,1947,1947,1950,1950,1950,1950,1956,1956,1956,1950,1950,1950,1950,1947,1947,1941,1941,1938,1941,1938,1933,1930,1927,1924,1921,1921,1919,1916,1916,1916,1913,1913,1913,1910,0,0,0,0,0,0,0,0,0,0,0,0,0,0,0,0,0,0,0,0,0,0,0,0,0,0,0,0,0,0,0,0,0,0,0,0,0,0,0,0,0,0,0,0,0,0,0,0,0,0,0,0,0,0,0,0,538,537,537,537,537,536,536,535,532,530,529,528,526,523,0,520,518,517,516,515,515,513,511,510,0,503,499,497,493,492,490,489,488,488,487,486,485,482,480,479,476,474,474,472,470,469,469,468,467,465,0,0,0,458,457,456,455,454,453,453,0,0,449,448,447,444,444,0,439,438,435,0,0,0,0,0,0,0,0,0,0,0,0,418,416,414,413,412,412,412,411,410,409,409,408,408,406,404,0,401,0,0,398,398,397,396,396,0,0,0,0,0,0,0,0,0,0,0,0,0,0,0,0,0,0,0,0,0,0,0,0,0,0,0,0,0,0,0,0,0,361,360,359,358,358,358,356,355,353,0,0,351,350,349,349,349,348,348,0,0,0,0,0,0,0,0,0,0,0,0
0,0,0,0,0,0,0,0,0,0,0,0,0,0,0,0,0,0,0,0,0,0,0,0,0,0,0,0,0,0,0,0,0,0,0,0,0,0,0,0,0,0,0,0,0,0,0,0,0,0,0,0,0,0,0,0,0,0,0,0,0,0,0,0,0,0,0,0,0,0,0,0,0,0,0,0,0,0,0,0,0,0,0,0,0,0,0,0,0,0,0,0,0,0,0,0,0,0,0,0,0,0,0,0,0,0,0,0,0,0,0,0,0,0,0,0,0,0,0,0,0,0,0,0,0,0,0,0,0,0,0,0,0,0,0,0,0,0,0,0,0,0,0,0,0,0,0,0,0,0,0,0,0,0,0,0,0,0,0,0,0,0,0,0,0,0,0,0,0,0,0,0,0,0,0,0,0,0,0,0,0,0,0,0,0,0,0,0,0,0,0,0,0,0,0,0,0,0,0,0,0,0,0,0,0,0,0,0,0,0,0,0,0,0,0,0,0,0,0,0,0,0,2013,2013,2013,2016,2013,2013,2013,2010,2010,2010,2010,2010,2007,0,0,0,2004,0,0,0,0,2004,2004,2001,2004,2001,2004,2004,2007,2007,2007,2007,2007,2007,2007,2007,2010,2007,2010,2010,2007,2007,2010,2010,2010,2007,2007,2007,2007,2007,2007,2007,2004,2004,2004,2001,2001,2001,2001,2001,2001,2001,2001,2001,2001,1997,1997,1997,1997,1997,1997,1997,1997,1997,1997,1997,1997,1997,2001,2001,2001,2001,2004,2004,2004,2004,2004,2001,2001,2001,2001,2001,2001,2001,2001,1997,1997,1997,1994,1994,1994,1994,1994,1994,1994,1994,1994,1994,1994,1994,1994,1994,1994,1994,1994,1994,1994,1994,1994,1994,1994,1994,1991,1991,1988,1985,1985,1982,1982,1979,1979,1979,1979,1979,1979,1979,1979,1982,1982,1985,1988,1988,1991,1991,1991,1991,1991,1991,1994,1994,1994,1994,1994,1991,1991,1991,1991,1994,1994,1994,1994,1994,1997,1997,2001,2001,2004,2007,2007,2007,2010,2010,2010,2010,2010,2010,2010,2010,2010,2007,2007,2004,2001,2001,1997,1997,1994,1988,1985,1982,1982,1979,1979,1976,1976,1979,1979,1982,1982,1979,1979,1979,1982,1982,1982,1982,1982,1982,1985,1982,1982,1982,1982,1979,1979,1979,1979,1979,1979,1979,1979,1979,1976,1976,1970,1970,1970,1970,1970,1970,1970,1970,1970,1970,1970,1968,1968,1968,1968,1968,1970,1970,1970,1970,1970,1970,1968,1968,1962,1962,1959,1959,1956,1956,1956,1956,1956,1956,1956,1956,1956,1956,1956,1959,1959,1959,1959,1959,1959,1959,1959,1956,1950,1950,1947,1947,1947,1941,1941,1941,1941,1941,1941,1941,1938,1938,1938,1938,1938,1938,1938,1938,1938,1938,1938,1938,1938,1933,1933,1933,1933,1933,1933,1933,1933,1930,1930,1930,1930,1930,1930,1933,1930,1930,1930,1927,1927,1927,1930,1930,1927,1927,1927,1930,1930,1930,1930,1930,1930,1930,1933,1933,1933,1933,1933,1933,1933,1938,1938,1938,1938,1938,1938,1938,1938,1938,1941,1947,1947,1947,1947,1947,1950,1950,1956,1956,1956,1950,1950,1950,1950,1947,1947,1941,1941,1938,1938,1933,1930,1927,1924,1921,1919,1916,1916,1916,1913,1913,1913,1913,1910,0,0,0,0,0,0,0,0,0,0,0,0,0,0,0,0,0,0,0,0,0,0,0,0,0,0,0,0,0,0,0,0,0,0,0,0,0,0,0,0,0,0,0,0,0,0,0,0,0,0,0,0,0,0,0,0,537,537,537,537,536,536,535,533,531,529,529,527,524,522,521,519,518,516,516,515,0,0,510,0,504,501,497,0,492,491,490,489,489,487,486,485,483,481,479,477,475,474,472,470,469,469,468,467,465,0,0,0,459,458,457,456,454,454,453,452,0,0,0,447,444,444,0,0,0,0,0,0,0,430,430,0,0,0,0,0,424,421,419,416,415,414,413,412,412,411,411,410,409,408,408,406,404,403,401,400,399,398,398,397,396,0,0,0,0,0,0,0,0,0,0,0,0,0,0,0,0,0,0,0,0,0,0,0,0,0,0,0,0,0,0,0,0,0,362,361,361,360,359,358,358,357,355,353,0,0,351,350,349,349,349,348,348,0,0,346,0,0,0,0,0,0,0,0,0
0,0,0,0,0,0,0,0,0,0,0,0,0,0,0,0,0,0,0,0,0,0,0,0,0,0,0,0,0,0,0,0,0,0,0,0,0,0,0,0,0,0,0,0,0,0,0,0,0,0,0,0,0,0,0,0,0,0,0,0,0,0,0,0,0,0,0,0,0,0,0,0,0,0,0,0,0,0,0,0,0,0,0,0,0,0,0,0,0,0,0,0,0,0,0,0,0,0,0,0,0,0,0,0,0,0,0,0,0,0,0,0,0,0,0,0,0,0,0,0,0,0,0,0,0,0,0,0,0,0,0,0,0,0,0,0,0,0,0,0,0,0,0,0,0,0,0,0,0,0,0,0,0,0,0,0,0,0,0,0,0,0,0,0,0,0,0,0,0,0,0,0,0,0,0,0,0,0,0,0,0,0,0,0,0,0,0,0,0,0,0,0,0,0,0,0,0,0,0,0,0,0,0,0,0,0,0,0,0,0,0,0,0,0,0,2010,2010,0,0,0,0,0,2016,2016,2013,2016,2013,2013,2010,2010,2010,2010,2010,2010,2007,2007,0,0,2007,2004,2004,2004,0,2004,2004,2004,2004,2004,2004,2007,2007,2007,2007,2007,2007,2007,2007,2007,2007,2010,2007,2010,2007,2007,2007,2007,2007,2007,2007,2007,2007,2007,2007,2004,2004,2004,2004,2001,2001,2001,2001,2001,2001,2001,2001,2001,2001,2001,2001,2001,1997,1997,1997,1997,1997,1997,1997,1997,1997,2001,2001,2001,2001,2004,2004,2004,2007,2004,2004,2004,2004,2004,2004,2004,2001,2001,2001,2001,1997,1997,1997,1997,1994,1994,1994,1994,1994,1994,1994,1994,1994,1994,1994,1994,1994,1994,1994,1994,1994,1994,1994,1994,1994,1994,1991,1991,1988,1985,1985,1982,1982,1979,1979,1979,1976,1979,1979,1979,1982,1982,1985,1988,1988,1991,1991,1991,1991,1991,1991,1991,1991,1991,1991,1991,1991,1991,1991,1994,1994,1994,1994,1994,1994,1994,1997,1997,1997,2001,2001,2004,2007,2007,2007,2007,2010,2010,2010,2007,2007,2007,2007,2001,2001,1997,1997,1997,1994,1991,1985,1982,1979,1976,1976,1976,1970,1970,1970,1976,1979,1979,1979,1979,1979,1982,1982,1985,1985,1985,1985,1985,1985,1985,1982,1982,1979,1979,1979,1979,1979,1979,1979,1976,1976,1976,1976,1976,1970,1970,1970,1970,1968,1970,1968,1968,1968,1968,1968,1968,1968,1968,1968,1968,1968,1970,1970,1970,1970,1968,1968,1968,1962,1962,1959,1956,1956,1956,1956,1956,1956,1956,1956,1956,1956,1956,1956,1956,1959,1959,1959,1959,1959,1959,1959,1956,1956,1950,1947,1947,1947,1941,1941,1941,1941,1938,1938,1938,1938,1938,1938,1938,1938,1938,1938,1938,1938,1938,1938,1938,1933,1933,1933,1933,1933,1933,1933,1933,1930,1930,1930,1930,1930,1930,1930,1933,1930,1930,1930,1930,1927,1927,1927,1927,1927,1927,1927,1927,1927,1930,1930,1927,1930,1930,1930,1933,1933,1933,1933,1933,1933,1933,1933,1933,1933,1933,1933,1933,1933,1938,1938,1938,1941,1941,1941,1947,1947,1950,1950,1950,1956,1950,1956,1956,1950,1950,1950,1947,1947,1941,1938,1933,1930,1930,1927,1924,1921,1919,1916,1916,1916,1916,1913,1913,1913,1913,0,0,0,0,0,0,0,0,0,0,0,0,0,0,0,0,0,0,0,0,0,0,0,0,0,0,0,0,0,0,0,0,0,0,0,0,0,0,0,0,0,0,0,0,0,0,0,0,0,0,0,0,0,0,0,0,537,537,536,536,536,535,533,531,530,529,527,524,523,522,520,519,517,516,515,513,0,0,0,504,0,0,0,493,492,491,490,489,488,486,485,484,481,479,477,475,474,472,470,469,469,468,467,465,464,463,461,459,458,457,456,455,454,453,452,451,449,448,447,445,444,442,440,0,0,434,432,430,430,430,430,429,429,428,0,0,0,0,418,416,0,0,0,0,412,411,411,409,408,408,406,404,403,400,400,399,398,398,397,396,396,0,0,0,0,0,0,0,0,0,0,0,0,0,0,0,0,0,0,0,0,0,0,0,0,0,0,0,0,0,0,0,0,362,361,361,360,359,358,358,357,355,354,352,352,351,350,349,349,349,348,348,347,0,346,0,0,0,0,0,0,0,0,0
0,0,0,0,0,0,0,0,0,0,0,0,0,0,0,0,0,0,0,0,0,0,0,0,0,0,0,0,0,0,0,0,0,0,0,0,0,0,0,0,0,0,0,0,0,0,0,0,0,0,0,0,0,0,0,0,0,0,0,0,0,0,0,0,0,0,0,0,0,0,0,0,0,0,0,0,0,0,0,0,0,0,0,0,0,0,0,0,0,0,0,0,0,0,0,0,0,0,0,0,0,0,0,0,0,0,0,0,0,0,0,0,0,0,0,0,0,0,0,0,0,0,0,0,0,0,0,0,0,0,0,0,0,0,0,0,0,0,0,0,0,0,0,0,0,0,0,0,0,0,0,0,0,0,0,0,0,0,0,0,0,0,0,0,0,0,0,0,0,0,0,0,0,0,0,0,0,0,0,0,0,0,0,0,0,0,0,0,0,0,0,0,0,0,0,0,0,0,0,0,0,0,0,0,0,0,0,0,0,0,0,0,0,0,2010,2010,2013,2013,2013,0,2013,2016,2016,2016,2016,2016,2013,2013,2010,2010,2010,2010,2010,2010,2010,2007,2007,2007,2007,2007,2004,2007,2004,2004,2004,2007,2004,2004,2007,2007,2007,2007,2007,2007,2007,2007,2007,2007,2007,2007,2007,2007,2007,2007,2007,2007,2007,2007,2007,2007,2004,2004,2004,2004,2004,2004,2004,2001,2001,2001,2001,2001,2001,2001,2001,2001,2001,1997,1997,1997,1997,1997,1997,1997,1997,1997,1997,1997,1997,2001,2001,2001,2004,2004,2007,2007,2007,2007,2007,2007,2004,2004,2004,2004,2004,2001,2001,2001,2001,1997,1997,1997,1997,1994,1994,1994,1994,1994,1994,1994,1994,1994,1994,1994,1994,1994,1994,1994,1994,1994,1994,1994,1994,1994,1991,1988,1988,1985,1985,1982,1979,1976,1976,1976,1976,1979,1982,1982,1985,1988,1988,1991,1991,1991,1991,1991,1994,1994,1994,1994,1994,1994,1994,1991,1991,1991,1991,1994,1994,1994,1994,1994,1994,1994,1994,1997,1997,2001,2001,2001,2004,2004,2007,2007,2007,2007,2007,2004,2001,2001,2001,1997,1997,1994,1994,1991,1988,1985,1982,1976,1970,1970,1970,1970,1968,1970,1970,1976,1979,1979,1982,1982,1982,1982,1985,1985,1985,1985,1985,1985,1985,1985,1982,1979,1979,1979,1979,1979,1976,1976,1976,1976,1976,1976,1976,1970,1970,1970,1970,1970,1968,1968,1968,1968,1968,1968,1968,1968,1968,1968,1968,1968,1968,1968,1970,1970,1970,1970,1968,1968,1962,1962,1962,1959,1956,1956,1956,1956,1950,1950,1950,1950,1950,1956,1956,1956,1956,1959,1959,1959,1959,1959,1959,1959,1956,1950,1950,1947,1947,1941,1941,1941,1938,1938,1938,1938,1938,1933,1933,1933,1938,1938,1938,1938,1938,1938,1938,1938,1933,1933,1933,1933,1933,1933,1933,1933,1930,1930,1930,1930,1930,1930,1930,1933,1933,1930,1930,1930,1930,1927,1927,1927,1924,1924,1924,1924,1927,1927,1927,1927,1927,1927,1930,1930,1930,1930,1933,1933,1933,1933,1938,1938,1938,1933,1933,1933,1933,1933,1933,1933,1938,1938,1938,1941,1947,1947,1947,1947,1950,1950,1950,1956,1956,1950,1950,1950,1947,1947,1941,1938,1933,1933,1930,1927,1924,1921,1919,1919,1919,1919,1919,1916,1916,0,0,0,0,0,0,0,0,0,0,0,0,0,0,0,0,0,0,0,0,0,0,0,0,0,0,0,0,0,0,0,0,0,0,0,0,0,0,0,0,0,0,0,0,0,0,0,0,0,0,0,0,0,0,0,538,537,537,537,536,536,536,535,533,531,530,529,527,525,523,522,521,519,517,516,515,513,0,509,507,0,0,0,0,0,0,491,491,490,488,487,486,484,481,479,478,475,474,472,471,470,469,468,467,465,464,463,461,459,458,457,455,454,453,453,452,451,449,448,447,445,444,443,0,0,0,0,432,430,430,430,429,429,429,428,0,0,423,0,0,0,0,0,0,413,412,412,0,410,409,408,407,405,403,400,400,399,398,397,397,396,396,395,394,393,392,391,390,389,388,387,386,0,0,0,0,0,0,0,0,0,0,0,0,0,0,0,0,0,368,367,365,365,363,362,361,361,360,360,358,358,357,355,354,0,352,351,350,349,349,349,348,348,347,346,0,0,0,0,0,0,0,0,0,0
0,0,0,0,0,0,0,0,0,0,0,0,0,0,0,0,0,0,0,0,0,0,0,0,0,0,0,0,0,0,0,0,0,0,0,0,0,0,0,0,0,0,0,0,0,0,0,0,0,0,0,0,0,0,0,0,0,0,0,0,0,0,0,0,0,0,0,0,0,0,0,0,0,0,0,0,0,0,0,0,0,0,0,0,0,0,0,0,0,0,0,0,0,0,0,0,0,0,0,0,0,0,0,0,0,0,0,0,0,0,0,0,0,0,0,0,0,0,0,0,0,0,0,0,0,0,0,0,0,0,0,0,0,0,0,0,0,0,0,0,0,0,0,0,0,0,0,0,0,0,0,0,0,0,0,0,0,0,0,0,0,0,0,0,0,0,0,0,0,0,0,0,0,0,0,0,0,0,0,0,0,0,0,0,0,0,0,0,0,0,0,0,0,0,0,0,0,0,0,0,0,0,0,0,0,0,0,0,0,0,0,0,2016,2013,2013,2013,2013,2013,2013,2016,2016,2016,2016,2019,2016,2019,2016,2013,2013,2010,2010,2010,2010,2010,2010,2007,2007,2007,2007,2007,2007,2007,2007,2007,2007,2007,2007,2007,2007,2007,2007,2007,2007,2007,2007,2007,2007,2007,2007,2007,2007,2007,2007,2007,2007,2007,2007,2007,2007,2007,2004,2004,2004,2004,2004,2004,2004,2001,2001,2001,2001,2001,2001,2001,2001,2001,2001,1997,1997,1997,1997,1997,1997,1997,1997,1997,1997,1997,2001,2001,2001,2004,2007,2007,2007,2007,2007,2007,2007,2007,2007,2007,2007,2004,2004,2004,2001,2001,2001,2001,1997,1997,1997,1997,1994,1994,1994,1994,1994,1994,1994,1994,1994,1994,1994,1994,1994,1994,1994,1994,1994,1994,1994,1994,1991,1991,1988,1985,1985,1982,1982,1979,1979,1979,1982,1985,1985,1988,1991,1991,1991,1994,1994,1994,1994,1994,1994,1994,1994,1994,1994,1994,1994,1994,1994,1994,1994,1994,1994,1994,1991,1991,1994,1994,1994,1997,1997,1997,1997,2001,2001,2001,2001,2001,2001,2001,2001,1997,1997,1997,1997,1994,1994,1991,1988,1985,1982,1979,1976,1970,1968,1968,1968,1968,1968,1968,1970,1976,1979,1982,1982,1982,1982,1985,1985,1985,1985,1985,1985,1985,1985,1985,1982,1979,1979,1979,1979,1976,1976,1976,1976,1970,1970,1970,1970,1970,1970,1970,1970,1970,1968,1968,1968,1968,1968,1968,1968,1968,1968,1968,1968,1968,1968,1968,1970,1970,1970,1970,1970,1968,1968,1962,1962,1959,1956,1956,1956,1956,1950,1950,1950,1950,1950,1950,1956,1956,1956,1959,1959,1959,1959,1959,1959,1959,1959,1956,1950,1950,1947,1941,1941,1941,1938,1938,1938,1933,1933,1933,1933,1933,1933,1933,1933,1933,1933,1933,1933,1933,1933,1933,1933,1933,1933,1933,1933,1933,1933,1933,1933,1933,1933,1933,1933,1933,1933,1933,1933,1933,1930,1930,1927,1927,1924,1924,1924,1924,1927,1927,1927,1927,1927,1927,1930,1930,1933,1933,1933,1933,1933,1933,1938,1933,1933,1933,1933,1933,1930,1930,1930,1930,1930,1933,1933,1938,1938,1941,1947,1947,1947,1950,1950,1950,1956,1950,1950,1950,1947,1947,1941,1941,1938,1933,1933,1930,1927,1924,1924,1924,1921,1924,1924,1924,0,0,0,0,0,0,0,0,0,0,0,0,0,0,0,0,0,0,0,0,0,0,0,0,0,0,0,0,0,0,0,0,0,0,0,0,0,0,0,0,0,0,0,0,0,0,0,0,0,0,0,0,0,0,0,0,538,537,537,537,537,536,536,535,534,532,530,529,528,525,523,522,522,520,518,516,515,512,0,509,507,0,0,0,0,0,0,492,491,491,489,488,486,485,482,479,478,475,474,473,471,469,469,468,467,465,464,463,461,459,458,457,456,454,453,453,452,450,449,448,0,0,0,0,0,0,0,0,0,0,430,430,429,429,429,427,426,0,0,0,0,0,0,0,415,413,413,412,412,411,409,408,0,404,403,400,400,399,398,397,397,396,396,396,394,393,392,391,390,0,388,387,386,385,385,0,0,0,0,0,0,0,0,0,0,0,0,0,0,368,368,367,365,364,363,362,361,361,361,360,359,358,357,355,354,353,352,351,0,349,349,349,348,0,347,0,0,0,0,0,0,0,0,0,0,0
0,0,0,0,0,0,0,0,0,0,0,0,0,0,0,0,0,0,0,0,0,0,0,0,0,0,0,0,0,0,0,0,0,0,0,0,0,0,0,0,0,0,0,0,0,0,0,0,0,0,0,0,0,0,0,0,0,0,0,0,0,0,0,0,0,0,0,0,0,0,0,0,0,0,0,0,0,0,0,0,0,0,0,0,0,0,0,0,0,0,0,0,0,0,0,0,0,0,0,0,0,0,0,0,0,0,0,0,0,0,0,0,0,0,0,0,0,0,0,0,0,0,0,0,0,0,0,0,0,0,0,0,0,0,0,0,0,0,0,0,0,0,0,0,0,0,0,0,0,0,0,0,0,0,0,0,0,0,0,0,0,0,0,0,0,0,0,0,0,0,0,0,0,0,0,0,0,0,0,0,0,0,0,0,0,0,0,0,0,0,0,0,0,0,0,0,0,0,0,0,0,0,0,0,0,0,0,0,0,0,0,0,2016,2016,2013,2013,2016,2016,2016,2016,2016,2019,2019,2019,2019,2019,2019,2016,2013,2013,2010,2010,2010,2010,2010,2010,2007,2007,2007,2007,2007,2007,2007,2007,2007,2007,2007,2007,2007,2007,2010,2010,2010,2010,2010,2007,2007,2007,2007,2007,2007,2007,2007,2007,2007,2007,2007,2007,2004,2007,2004,2004,2004,2004,2004,2004,2004,2004,2007,2004,2004,2004,2001,2001,2001,2001,2001,2001,1997,1997,1997,1997,1997,1997,1997,1997,1997,2001,2001,2004,2004,2004,2007,2007,2007,2007,2010,2010,2010,2007,2007,2007,2007,2007,2007,2007,2004,2004,2001,2001,2001,1997,1997,1997,1994,1994,1994,1994,1994,1994,1994,1994,1994,1994,1994,1994,1994,1994,1994,1994,1994,1994,1994,1994,1994,1991,1988,1988,1985,1985,1985,1985,1985,1985,1988,1991,1994,1994,1994,1994,1994,1994,1994,1994,1994,1994,1994,1994,1994,1994,1994,1994,1994,1994,1994,1994,1994,1994,1994,1994,1991,1991,1994,1994,1994,1994,1994,1994,1997,1997,1997,1997,1997,1997,1997,1997,1997,1994,1994,1994,1991,1991,1988,1985,1982,1979,1979,1976,1970,1968,1962,1962,1968,1962,1968,1968,1970,1976,1979,1982,1982,1982,1982,1985,1985,1985,1985,1985,1985,1985,1985,1982,1982,1979,1979,1979,1976,1976,1976,1976,1970,1970,1970,1970,1970,1970,1970,1970,1970,1970,1968,1968,1968,1962,1968,1962,1962,1968,1968,1968,1968,1968,1968,1968,1968,1970,1970,1970,1970,1970,1968,1962,1962,1962,1959,1956,1956,1956,1950,1950,1950,1950,1950,1950,1950,1950,1956,1956,1959,1959,1959,1962,1959,1959,1959,1956,1956,1950,1947,1947,1941,1938,1938,1938,1933,1933,1933,1933,1930,1930,1930,1933,1933,1933,1933,1933,1933,1938,1933,1933,1933,1933,1933,1933,1933,1938,1938,1938,1938,1938,1938,1938,1938,1938,1933,1933,1933,1933,1933,1930,1930,1927,1927,1927,1924,1924,1927,1927,1927,1927,1927,1930,1930,1933,1933,1933,1933,1938,1938,1938,1938,1938,1933,1933,1933,1930,1930,1930,1930,1930,1930,1930,1930,1933,1938,1938,1941,1941,1947,1947,1950,1950,1950,1950,1950,1950,1950,1947,1947,1941,1941,1938,1933,1933,1930,1930,1930,1930,1930,1927,1930,1927,1930,0,0,0,0,0,0,0,0,0,0,0,0,0,0,0,0,0,0,0,0,0,0,0,0,0,0,0,0,0,0,0,0,0,0,0,0,0,0,0,0,0,0,0,0,0,0,0,0,0,0,0,0,0,0,0,0,0,537,537,537,536,536,535,534,532,530,529,528,526,524,523,522,521,518,0,0,512,0,0,507,504,503,501,0,497,495,493,492,491,490,489,486,485,483,0,0,0,474,473,471,469,469,468,466,465,464,463,460,459,458,457,455,454,453,453,452,450,449,0,0,0,0,0,443,0,0,0,434,432,431,430,430,429,429,428,426,0,0,421,420,418,417,416,416,414,0,413,412,412,0,408,0,404,402,400,399,399,398,397,397,396,396,395,394,393,392,391,0,389,388,387,0,385,385,383,382,0,0,0,0,0,0,0,0,0,0,0,0,368,368,367,366,365,364,363,0,361,361,360,359,358,357,355,354,353,0,352,0,350,349,349,0,0,0,0,0,0,0,0,0,0,0,0,0,0
0,0,0,0,0,0,0,0,0,0,0,0,0,0,0,0,0,0,0,0,0,0,0,0,0,0,0,0,0,0,0,0,0,0,0,0,0,0,0,0,0,0,0,0,0,0,0,0,0,0,0,0,0,0,0,0,0,0,0,0,0,0,0,0,0,0,0,0,0,0,0,0,0,0,0,0,0,0,0,0,0,0,0,0,0,0,0,0,0,0,0,0,0,0,0,0,0,0,0,0,0,0,0,0,0,0,0,0,0,0,0,0,0,0,0,0,0,0,0,0,0,0,0,0,0,0,0,0,0,0,0,0,0,0,0,0,0,0,0,0,0,0,0,0,0,0,0,0,0,0,0,0,0,0,330,330,0,330,330,330,330,330,330,0,0,0,0,0,0,0,0,0,0,0,0,0,0,0,0,0,0,0,0,0,0,0,0,0,0,0,0,0,0,0,0,0,0,0,0,0,0,0,0,0,0,0,0,2028,0,0,0,0,2019,2016,2016,2016,2016,2019,2016,2016,2019,2019,2019,2019,2016,2019,2016,2016,2013,2013,2013,2013,2010,2010,2010,2010,2010,2007,2007,2007,2007,2007,2007,2007,2007,2007,2007,2007,2010,2010,2010,2010,2010,2010,2010,2010,2010,2007,2007,2007,2007,2007,2007,2007,2007,2007,2007,2007,2007,2007,2007,2007,2007,2007,2007,2007,2007,2004,2007,2007,2004,2004,2004,2001,2001,2001,2001,2001,2001,2001,2001,2001,1997,2001,2001,2001,2001,2001,2001,2004,2007,2007,2007,2007,2010,2010,2010,2010,2010,2010,2010,2007,2010,2007,2007,2007,2007,2004,2001,2001,2001,1997,1997,1997,1997,1994,1994,1994,1994,1994,1994,1994,1994,1994,1994,1994,1994,1994,1994,1994,1994,1994,1994,1994,1994,1994,1994,1994,1994,1994,1994,1994,1997,1997,1997,1997,1997,1997,1997,1997,1997,1997,1997,1997,1994,1994,1994,1994,1994,1994,1994,1994,1994,1994,1994,1991,1991,1991,1991,1991,1991,1991,1991,1991,1991,1991,1991,1991,1994,1994,1994,1994,1994,1994,1994,1994,1994,1991,1991,1988,1988,1985,1985,1982,1982,1979,1976,1970,1968,1968,1962,1962,1962,1968,1968,1970,1970,1976,1982,1982,1982,1985,1985,1985,1988,1988,1988,1985,1985,1985,1985,1982,1982,1979,1979,1976,1976,1976,1976,1970,1970,1970,1970,1970,1970,1970,1970,1970,1968,1968,1968,1968,1962,1962,1962,1962,1962,1962,1962,1968,1968,1970,1968,1970,1970,1970,1970,1970,1970,1970,1968,1968,1962,1962,1959,1956,1956,1956,1950,1950,1947,1947,1947,1950,1950,1950,1956,1956,1959,1959,1962,1962,1962,1959,1959,1959,1956,1950,1950,1947,1941,1941,1938,1933,1933,1933,1933,1930,1930,1930,1930,1933,1933,1933,1933,1938,1938,1938,1938,1933,1933,1933,1938,1938,1938,1938,1938,1938,1941,1941,1941,1941,1938,1941,1941,1938,1938,1938,1933,1933,1930,1930,1927,1927,1927,1927,1927,1927,1927,1927,1930,1930,1933,1933,1933,1938,1938,1938,1938,1938,1938,1933,1933,1933,1933,1930,1930,1930,1927,1927,1927,1927,1930,1930,1930,1933,1938,1938,1941,1947,1947,1950,1950,1950,1950,1950,1950,1947,1947,1947,1941,1941,1938,1938,1933,1938,1933,1933,1938,1938,1938,1933,1938,0,0,0,0,0,0,0,0,0,0,0,0,0,0,0,0,0,0,0,0,0,0,0,0,0,0,0,0,0,0,0,0,0,0,0,0,0,0,0,0,0,0,0,0,0,0,0,0,0,0,0,0,0,0,0,0,537,537,537,537,536,536,535,535,532,531,529,528,527,524,523,522,521,0,0,0,0,510,509,507,505,503,501,498,497,496,494,492,492,491,0,0,0,0,480,0,0,0,0,472,470,469,468,466,465,463,462,460,459,458,457,455,454,453,452,451,450,449,0,0,0,0,445,0,0,0,0,0,0,0,431,430,430,429,428,427,425,425,422,421,420,418,416,416,415,0,413,413,412,411,0,0,0,403,400,399,399,398,397,397,396,396,395,394,393,392,391,389,389,388,387,386,0,0,0,0,0,0,0,0,0,0,0,0,0,0,0,0,368,368,0,0,0,0,363,362,362,361,361,0,0,0,0,0,353,352,352,351,0,0,0,348,0,0,0,0,0,0,0,0,0,0,0,0,0
0,0,0,0,0,0,0,0,0,0,0,0,0,0,0,0,0,0,0,0,0,0,0,0,0,0,0,0,0,0,0,0,0,0,0,0,0,0,0,0,0,0,0,0,0,0,0,0,0,0,0,0,0,0,0,0,0,0,0,0,0,0,0,0,0,0,0,0,0,0,0,0,0,0,0,0,0,0,0,0,0,0,0,0,0,0,0,0,0,0,0,0,0,0,0,0,0,0,0,0,0,0,0,0,0,0,0,0,0,0,0,0,0,0,0,0,0,0,0,0,0,0,0,0,0,0,0,0,0,0,0,0,0,0,0,0,0,0,0,0,0,0,0,0,0,0,0,0,0,0,0,0,0,330,330,330,330,330,330,330,330,330,330,330,0,0,0,0,0,0,0,0,0,0,0,0,0,0,0,0,0,0,0,0,0,0,0,0,0,0,0,0,0,0,0,0,0,0,0,0,0,0,0,0,2035,0,0,2035,2035,2028,0,2022,2022,2019,2019,2019,2019,2016,2019,2019,2019,2019,2019,2019,2019,2019,2019,2016,2016,2013,2013,2016,2013,2013,2010,2010,2010,2010,2007,2007,2007,2007,2007,2007,2007,2007,2007,2007,2010,2010,2010,2010,2010,2010,2010,2010,2010,2010,2010,2007,2007,2007,2007,2007,2007,2007,2007,2007,2007,2007,2007,2007,2007,2007,2007,2007,2007,2007,2007,2007,2007,2004,2004,2004,2001,2001,2001,2001,2001,2001,2001,2001,2001,2001,2001,2001,2001,2001,2004,2007,2007,2007,2010,2010,2010,2010,2010,2010,2010,2010,2010,2010,2010,2010,2010,2007,2007,2004,2004,2001,2001,2001,1997,1997,1994,1994,1994,1994,1994,1994,1994,1994,1994,1997,1997,1994,1994,1994,1997,1997,1997,1997,1997,1997,2001,2001,2001,2001,2004,2004,2004,2004,2007,2004,2004,2007,2007,2004,2004,2004,2001,2001,2001,1997,1997,1997,1994,1994,1994,1994,1994,1994,1994,1994,1994,1994,1991,1991,1991,1991,1991,1988,1988,1988,1988,1988,1988,1988,1988,1988,1991,1991,1991,1991,1991,1991,1991,1988,1988,1988,1988,1985,1985,1982,1979,1979,1976,1976,1970,1968,1968,1968,1968,1968,1968,1970,1976,1976,1982,1982,1985,1985,1985,1988,1988,1988,1988,1985,1985,1985,1985,1982,1979,1979,1979,1976,1976,1976,1970,1970,1970,1970,1970,1970,1970,1970,1968,1968,1968,1968,1962,1962,1962,1962,1962,1962,1962,1962,1962,1968,1968,1970,1970,1970,1970,1970,1970,1970,1970,1970,1970,1970,1968,1962,1962,1956,1956,1956,1950,1950,1947,1947,1947,1947,1950,1947,1950,1956,1956,1959,1962,1962,1962,1962,1962,1959,1956,1956,1950,1947,1941,1941,1938,1933,1933,1933,1933,1933,1933,1933,1933,1933,1938,1938,1938,1938,1938,1938,1938,1938,1938,1938,1938,1941,1941,1947,1947,1947,1947,1947,1947,1947,1947,1947,1941,1941,1941,1938,1938,1933,1933,1930,1927,1927,1927,1927,1927,1930,1930,1930,1933,1933,1933,1938,1938,1941,1938,1938,1938,1938,1938,1938,1933,1933,1933,1930,1930,1927,1927,1927,1927,1927,1927,1927,1930,1930,1933,1933,1938,1941,1947,1947,1950,1950,1950,1950,1947,1947,1947,1947,1947,1941,1941,1941,1941,1941,1941,1941,1941,1947,1947,1947,1947,0,0,0,0,0,0,0,0,0,0,0,0,0,0,0,0,0,0,0,0,0,0,0,0,0,0,0,0,0,0,0,0,0,0,0,0,0,0,0,0,0,0,0,0,0,0,0,0,0,0,0,0,0,0,0,537,537,537,537,537,536,536,536,535,533,531,529,529,527,525,524,522,0,0,0,0,511,509,508,507,505,503,502,499,497,497,495,493,492,491,0,0,0,0,0,0,475,474,473,472,470,469,468,467,465,463,462,460,458,458,456,454,454,453,452,451,450,449,448,448,447,446,445,444,0,0,0,0,0,434,432,431,430,429,428,427,425,0,423,421,420,418,417,416,416,415,414,413,412,411,0,0,0,0,0,0,399,399,398,397,397,396,395,394,393,392,0,389,389,388,386,385,385,0,0,0,0,0,0,0,0,0,0,0,0,0,0,0,0,0,0,0,0,0,364,363,362,361,0,0,0,0,0,0,0,0,0,0,0,0,0,0,0,0,0,0,0,0,0,0,0,0,0,0,0
0,0,0,0,0,0,0,0,0,0,0,0,0,0,0,0,0,0,0,0,0,0,0,0,0,0,0,0,0,0,0,0,0,0,0,0,0,0,0,0,0,0,0,0,0,0,0,0,0,0,0,0,0,0,0,0,0,0,0,0,0,0,0,0,0,0,0,0,0,0,0,0,0,0,0,0,0,0,0,0,0,0,0,0,0,0,0,0,0,0,0,0,0,0,0,0,0,0,0,0,0,0,0,0,0,0,0,0,0,0,0,0,0,0,0,0,0,0,0,0,0,0,0,0,0,0,0,0,0,0,0,0,0,0,0,0,0,0,0,0,0,0,0,0,0,0,0,0,0,0,0,0,0,330,330,330,330,330,330,331,330,330,330,331,331,0,0,0,0,0,0,0,0,0,0,0,0,0,0,0,0,0,0,0,0,0,0,0,0,0,0,0,0,0,0,0,0,0,0,0,0,0,2035,2038,2035,0,2038,2035,2035,2028,2028,2025,2025,2025,2022,2022,2022,2022,2022,2022,2022,2022,2022,2022,2022,2022,2022,2022,2019,2016,2016,2016,2016,2013,2013,2010,2010,2010,2010,2007,2007,2007,2007,2007,2007,2007,2007,2010,2010,2010,2010,2010,2010,2010,2010,2010,2010,2010,2010,2010,2010,2010,2010,2007,2007,2007,2007,2007,2007,2007,2007,2007,2007,2007,2007,2007,2007,2007,2007,2007,2007,2007,2007,2004,2004,2001,2001,2001,2001,2001,2001,2001,2001,2001,2001,2001,2001,2004,2004,2007,2007,2010,2010,2010,2013,2013,2013,2013,2013,2010,2010,2010,2010,2010,2010,2007,2007,2007,2004,2001,2001,2001,1997,1997,1997,1997,1997,1997,1997,1997,1997,1997,1997,1997,1997,1997,1997,2001,2001,2001,2001,2004,2007,2007,2007,2010,2010,2010,2010,2013,2013,2013,2013,2016,2016,2016,2016,2013,2010,2010,2010,2007,2004,2001,1997,1997,1994,1994,1994,1994,1994,1994,1994,1994,1994,1994,1994,1994,1991,1991,1991,1988,1988,1988,1988,1988,1985,1985,1985,1985,1985,1985,1985,1988,1988,1988,1985,1985,1985,1988,1985,1985,1985,1982,1982,1979,1976,1976,1970,1970,1968,1968,1970,1970,1970,1970,1976,1979,1982,1982,1985,1985,1985,1988,1988,1988,1988,1985,1985,1985,1985,1982,1979,1979,1976,1976,1976,1970,1970,1970,1970,1970,1970,1970,1970,1968,1968,1968,1968,1962,1962,1962,1962,1962,1962,1962,1962,1962,1962,1968,1970,1970,1970,1970,1970,1976,1976,1976,1976,1976,1970,1970,1968,1968,1962,1956,1956,1956,1950,1947,1947,1947,1947,1947,1950,1947,1950,1956,1956,1959,1962,1962,1962,1962,1962,1959,1959,1956,1950,1947,1947,1941,1938,1933,1933,1933,1933,1933,1933,1933,1933,1938,1938,1938,1938,1938,1938,1938,1938,1938,1938,1938,1941,1947,1947,1947,1947,1947,1950,1950,1950,1950,1947,1947,1947,1941,1941,1938,1933,1933,1933,1930,1927,1927,1930,1930,1930,1930,1933,1933,1933,1933,1938,1938,1941,1941,1938,1938,1938,1938,1938,1938,1933,1933,1933,1930,1930,1927,1927,1927,1924,1924,1924,1927,1927,1927,1930,1930,1933,1938,1941,1941,1947,1947,1947,1947,1947,1947,1947,1947,1947,1947,1947,1947,1947,1947,1947,1947,1947,1950,1956,1956,1956,1956,0,0,0,0,0,0,0,0,0,0,0,0,0,0,0,0,0,0,0,0,0,0,0,0,0,0,0,0,0,0,0,0,0,0,0,0,0,0,0,0,0,0,0,0,0,0,0,0,0,0,0,0,0,0,0,0,537,537,536,536,536,536,535,534,532,530,529,528,526,524,523,0,0,0,0,511,509,508,507,505,503,502,499,498,497,496,494,493,491,0,0,0,0,0,0,0,475,474,473,472,470,469,468,466,464,463,460,458,457,456,454,453,453,452,451,450,449,448,448,447,446,445,444,0,0,0,0,0,0,433,431,430,429,428,427,425,425,422,421,0,418,417,416,416,415,414,413,412,0,0,0,0,0,0,0,0,399,398,397,397,396,396,395,393,392,391,389,389,388,386,385,385,0,0,0,0,0,0,0,0,0,0,0,0,0,0,0,0,0,0,0,0,0,364,0,362,0,0,0,0,0,0,0,0,0,0,0,0,0,0,0,0,0,0,0,0,0,0,0,0,0,0,0,0
